ply
format ascii 1.0
element vertex 1024
property float x
property float y
property float z
property uchar red
property uchar green
property uchar blue
end_header
-0.19796187 -0.35324419 -0.02081358 72 40 120
0.17277507 0.24949202 -0.02563294 72 35 116
-0.19555196 0.05987811 -0.01369493 71 46 124
0.15957969 -0.15911938 -0.01654133 71 44 122
-0.04215125 0.23324321 0.23386684 132 212 75
0.04352705 0.05237597 -0.01800638 71 42 122
-0.06648865 -0.15400372 0.02460036 61 78 138
-0.03369317 0.33038810 -0.04504186 71 17 100
-0.05047690 0.18694587 0.06095624 48 105 142
-0.01325576 -0.29604360 -0.03093504 72 31 112
0.07387576 0.26292303 0.12674542 31 148 140
-0.19387504 -0.20118561 -0.04067081 72 22 104
0.18220693 -0.01195398 -0.01724863 71 42 122
-0.07523251 -0.01207880 0.01049276 65 66 135
0.05129400 0.19093044 -0.02716336 72 33 115
-0.19597560 -0.07318151 -0.01627743 71 44 122
0.16409469 0.11583982 -0.01880510 72 41 121
0.04431153 -0.19038977 -0.01745571 71 42 122
-0.08345953 0.10018266 -0.01471533 71 45 123
0.08938997 -0.07303541 -0.00256247 69 56 130
-0.11982352 -0.27989203 -0.00269794 69 56 130
-0.09009235 0.24369723 0.14097105 31 158 137
0.07084441 0.29156074 -0.01979551 72 40 120
-0.00335259 -0.06523437 -0.03545459 72 26 108
0.04413934 0.18791729 0.07633173 44 115 142
-0.05407490 0.23920172 -0.03081759 72 31 112
0.00226635 0.28256685 0.17808679 52 182 121
-0.01334181 -0.06103995 0.04951520 52 97 141
-0.00564150 0.13037743 -0.01655530 71 44 122
-0.05469887 -0.22747028 -0.00686738 70 52 128
0.12383074 0.04481187 -0.01550162 71 45 123
-0.19222534 0.13945910 -0.02472892 72 36 117
-0.14923306 -0.00142534 -0.01645442 71 44 122
0.05640289 -0.26537940 -0.01780781 71 42 122
-0.12339319 -0.19640090 -0.00420666 69 55 129
0.08326017 0.11584615 -0.01883051 72 41 121
0.15966013 -0.08619566 -0.03243527 72 29 111
0.12445801 0.18008439 -0.02131663 72 38 119
-0.19803974 -0.27327949 -0.02794105 72 33 115
0.05430975 -0.01124028 0.01635522 63 71 136
-0.03581446 0.04359967 -0.01319425 71 46 124
0.11800820 -0.21739125 -0.01270995 71 46 124
-0.01099168 -0.13413343 -0.01821129 71 42 122
-0.12697309 -0.35059091 -0.01638222 71 44 122
0.07896294 -0.14087258 0.01791263 63 72 137
0.00397227 0.27676067 -0.02640035 72 35 116
-0.03018170 0.25906950 0.11615361 33 142 141
0.04780295 0.09077600 0.03393940 57 85 140
-0.01068447 -0.12442087 0.04444406 54 93 141
-0.13179556 0.05981916 -0.01370396 71 46 124
0.13018103 0.24311294 0.10692187 36 135 142
0.00913129 0.26717678 0.24244051 147 215 65
-0.00456215 -0.01068566 -0.00597531 70 52 128
0.11674846 -0.01997455 -0.01696437 71 42 122
-0.07458256 -0.32240960 -0.00193788 69 56 130
-0.09049513 0.19138883 0.11062121 35 138 141
0.01728909 0.15080695 0.03714222 56 88 140
0.11392180 0.24182302 -0.01569229 71 44 122
-0.13349737 0.13775681 -0.01270678 71 46 124
0.02379964 0.23098327 0.12991790 31 151 139
0.00387986 -0.23578794 -0.01035182 70 48 126
-0.05636609 0.13066484 0.05430917 50 100 142
0.17830221 0.05983676 -0.01988223 72 40 120
-0.19824521 -0.14854042 -0.02073546 72 40 120
0.01238563 0.22370224 0.20724992 88 199 101
0.11805440 -0.12105580 -0.01552488 71 45 123
-0.01358537 -0.18543282 0.00170861 68 59 132
0.08408342 0.22325914 0.08337288 42 120 142
-0.15792808 -0.24218786 -0.00136371 68 57 131
-0.05872183 0.14734790 -0.01328254 71 46 124
0.17649376 0.18857695 -0.02407452 72 36 117
0.04904548 0.24367008 -0.02256034 72 38 119
-0.12053189 -0.04211791 0.00037146 68 58 131
-0.16343062 -0.31553060 -0.00413455 69 55 129
-0.19747074 -0.01811942 -0.00874752 70 50 126
-0.03574210 -0.05166597 0.00396911 67 61 132
-0.05630714 0.23668909 0.07799025 43 116 142
-0.01969285 0.23945339 0.16354816 38 173 129
-0.04361757 0.28895253 -0.02020450 72 40 120
0.03021996 -0.14244302 0.00648814 66 63 133
0.10010643 -0.17214508 -0.01491552 71 45 123
-0.09198413 0.02806095 -0.01141015 71 47 125
-0.16387147 0.10025535 -0.01992494 72 40 120
-0.05987435 -0.27455682 -0.01200521 71 47 125
0.03618713 0.10835010 -0.01318341 71 46 124
0.07621410 0.01139616 -0.01884332 72 41 121
-0.04894975 -0.09095972 0.05721488 49 102 142
-0.03726638 0.09210707 -0.01947901 72 41 121
-0.01113054 -0.09176024 0.00386497 67 61 132
0.12392218 0.09202901 -0.02026817 72 40 120
-0.02141777 0.17467642 -0.01243582 71 47 125
-0.09946177 -0.23631030 -0.00482512 69 53 129
0.02509311 0.18693131 0.01042779 65 66 135
0.03309643 0.27201062 0.14732032 31 162 135
-0.06244975 -0.18315874 -0.00895731 70 50 126
0.12200594 0.13640721 -0.02456310 72 36 117
0.08449818 0.16366348 -0.02175114 72 38 119
-0.16367294 -0.04452914 -0.01222068 71 47 125
0.08345157 0.06812219 -0.01944408 72 41 121
0.18265213 -0.12301701 -0.01742442 71 42 122
0.07554816 -0.22010177 -0.01278468 71 46 124
0.13181256 -0.05968383 -0.01463778 71 45 123
0.00343354 0.06529584 -0.01488670 71 45 123
0.02741304 0.15610163 -0.02076595 72 40 120
0.02833953 0.01391968 -0.01091707 70 48 126
-0.03545412 0.01049910 0.01088138 65 66 135
0.15146762 -0.19891798 -0.02728637 72 33 115
0.14809789 0.01233939 -0.01975727 72 41 121
0.03029609 0.30658320 -0.01766535 71 42 122
0.09173565 0.20397434 -0.02232616 72 38 119
0.17830877 -0.05224643 -0.02081463 72 40 120
-0.06153980 0.22168408 0.11514948 34 141 141
-0.18213175 0.01987292 -0.00778795 70 51 127
-0.12370772 0.09910610 -0.01666631 71 44 122
0.05166698 0.21232538 0.10702406 36 135 142
0.01799645 -0.27406725 -0.01537172 71 45 123
0.07817552 -0.03627197 -0.01094782 70 48 126
-0.07453877 0.16479006 0.08275842 42 119 142
0.02454832 0.26468521 0.20667772 88 199 101
0.14744313 0.22030900 -0.02226976 72 38 119
0.15529577 0.15615049 -0.02237147 72 38 119
0.09628589 -0.10598572 0.01656771 63 71 136
-0.02756849 -0.14835423 0.02003761 62 74 137
-0.09884008 0.15362710 -0.01309957 71 46 124
-0.02467698 -0.26169571 -0.01959928 72 41 121
0.05314255 -0.17213237 0.01454107 64 70 136
0.06181263 0.25129017 0.09363525 39 127 142
-0.02599758 0.21325544 0.20723082 88 199 101
-0.04430311 0.16661580 0.03095925 59 82 139
-0.10668251 -0.00585950 -0.00741300 70 51 127
-0.12358738 -0.31591970 -0.00158635 69 56 130
-0.05138878 0.24741505 0.14280045 31 160 136
-0.19448136 -0.10911655 -0.01728657 71 42 122
-0.07593911 0.06012844 -0.01077169 70 48 126
-0.06555823 -0.04295633 0.02570685 60 79 138
0.02371317 0.22120805 -0.01259333 71 47 125
0.10156643 0.27447450 -0.02163346 72 38 119
-0.19819979 0.10168599 -0.01350086 71 46 124
0.04381995 0.17904848 0.03879638 56 89 140
-0.00340292 0.02796872 -0.01343513 71 46 124
0.09930721 0.25701091 0.09914733 38 130 142
0.08364005 -0.12392340 -0.01221566 71 47 125
0.05812357 0.07617780 0.00432812 67 62 133
-0.02990916 0.26509005 0.23809418 139 214 70
0.15078874 -0.03117499 -0.01553039 71 44 122
0.02312132 0.16239543 0.06854811 46 110 142
0.03774983 -0.23587181 -0.00881387 70 50 126
-0.01958941 -0.09187643 0.03774809 56 88 140
-0.05855454 0.19580728 0.09219790 39 126 142
0.02038273 0.19951859 0.09675413 38 129 142
0.06064456 0.13995226 -0.01856897 72 41 121
-0.16352867 0.05116963 -0.01532225 71 45 123
-0.09506625 -0.29659531 -0.01647757 71 44 122
0.15595883 0.08400229 -0.01931203 72 41 121
-0.05991230 0.02110989 -0.01013801 70 48 126
0.13704261 0.26439106 -0.02148896 72 38 119
0.01256501 -0.20452039 -0.00354065 69 55 129
-0.00422812 0.25287896 0.13515882 31 154 138
-0.09241849 -0.20449166 -0.00949099 70 50 126
0.15007581 -0.12826166 -0.01546553 71 45 123
-0.01878504 0.30207297 -0.04175892 72 20 103
-0.13235363 0.02767968 -0.01446468 71 45 123
-0.03871353 -0.01970992 0.00041607 68 58 131
0.17930253 0.01994681 -0.01893030 72 41 121
0.00999212 -0.06867893 -0.00652841 70 52 128
0.04596066 0.20928396 0.05255311 51 99 141
-0.00446576 0.25260821 0.18843663 63 188 115
-0.16654831 -0.34699717 -0.00833797 70 51 127
0.11633913 0.01200433 -0.01713603 71 42 122
-0.06049543 0.25854960 0.10069718 37 131 142
0.09600520 -0.24443199 -0.01261494 71 47 125
0.04305156 0.27486986 -0.02266179 72 37 118
0.08058518 0.24075392 -0.02477007 72 36 117
-0.02460044 -0.21346061 -0.00786312 70 51 127
-0.04120733 -0.13221833 0.04377353 54 93 141
-0.03639461 0.12396405 -0.01799804 71 42 122
0.01019725 0.28903788 0.13513263 31 154 138
0.00435909 0.01194531 0.01292818 64 69 136
0.12659651 -0.09295072 -0.02473546 72 36 117
-0.16422753 -0.07515007 -0.01142153 71 47 125
-0.00489337 -0.04234032 -0.01522467 71 45 123
-0.09186104 -0.26779321 -0.00533786 69 53 129
-0.00243681 0.15574379 0.01435960 64 70 136
0.13189366 -0.17998841 -0.01357799 71 46 124
-0.08572674 -0.17400508 0.00843617 66 64 134
-0.01255400 0.23568462 0.22712462 119 209 83
0.06154732 0.26426187 0.15452220 34 167 133
-0.09052705 0.21692069 0.12695639 31 148 140
-0.01571226 -0.12058962 0.01112393 65 66 135
0.07471691 -0.18787852 -0.01357179 71 46 124
-0.19964403 -0.17783788 -0.01517414 71 45 123
0.05824284 0.23772156 0.12333962 32 146 140
0.00826210 -0.11217012 -0.01215985 71 47 125
0.07580379 -0.15597408 -0.00890704 70 50 126
-0.19604889 -0.24683069 -0.01439770 71 45 123
-0.09244624 -0.03607976 0.01286754 64 69 136
-0.12742549 -0.25146914 0.00049576 68 58 131
0.08616556 -0.04956811 0.01513512 64 70 136
0.05187368 -0.00461365 -0.01411062 71 46 124
-0.01649649 -0.06803552 0.02043598 62 74 137
-0.04573626 -0.17153391 0.01225365 65 68 135
-0.04232973 -0.06256033 0.05382517 50 100 142
-0.04284601 0.26046658 -0.01330802 71 46 124
0.12421626 -0.14892749 -0.00901483 70 50 126
0.09182309 0.03604404 -0.01694867 71 42 122
-0.10462578 0.25317198 0.16433725 39 173 129
-0.09984465 0.12404113 -0.01318686 71 46 124
-0.10303801 -0.33887833 -0.00517310 69 53 129
0.15313815 0.04034122 -0.02472753 72 36 117
-0.10707206 0.07585701 -0.01255238 71 47 125
-0.02479777 0.32093540 -0.01930194 72 41 121
-0.01579687 -0.16307434 -0.01607931 71 44 122
0.09904360 -0.09973019 -0.01462995 71 45 123
0.06787135 0.09198236 -0.01735325 71 42 122
0.11968026 0.21522236 -0.02453300 72 36 117
0.10121527 -0.05102019 -0.01667200 71 44 122
0.02908990 -0.01123469 0.00463862 67 62 133
0.17755701 0.14009273 -0.02084887 72 40 120
-0.05645370 0.15836617 0.05387022 50 100 142
0.06048151 0.21228375 0.07604048 44 114 142
0.06220281 0.22035973 -0.02572216 72 35 116
0.01704000 0.24586627 0.22434522 115 208 86
-0.08629194 0.15028122 0.06346054 48 106 142
-0.19962478 -0.21677458 -0.01981656 72 40 120
-0.04959210 0.21261503 0.06899121 46 110 142
-0.14042993 -0.02806572 -0.01016057 70 48 126
0.00300803 0.17014951 -0.02176489 72 38 119
0.05518836 -0.13709871 -0.00052071 68 57 131
-0.19600506 -0.04450001 -0.00922097 70 50 126
0.00751065 0.26500887 0.15910628 36 170 131
-0.03992814 -0.04755220 0.02976355 59 82 139
-0.00639693 -0.16176771 0.01073332 65 66 135
0.02008923 0.04082987 -0.01536088 71 45 123
0.09161204 -0.01248977 -0.01720282 71 42 122
-0.02770766 0.14835489 -0.01404701 71 46 124
-0.17325035 0.07598877 -0.01783513 71 42 122
0.00885379 0.10877366 -0.01616667 71 44 122
0.05210210 0.02782739 -0.01818792 71 42 122
-0.02765918 0.06824841 -0.01420250 71 45 123
-0.17162137 -0.01182539 -0.00949391 70 50 126
-0.06809507 0.12419488 -0.01895757 72 41 121
0.09364150 0.13860725 -0.02431742 72 36 117
0.05151265 0.16449925 -0.02245485 72 38 119
-0.06038542 0.08403533 -0.01270620 71 46 124
-0.04893940 -0.25023928 -0.01654123 71 44 122
0.01957318 0.13202450 -0.01868069 72 41 121
-0.00794941 -0.11226902 -0.03162867 72 29 111
0.14548387 -0.21868387 -0.01264632 71 47 125
0.07662880 0.26712015 -0.02291695 72 37 118
0.15646665 -0.06508274 -0.01592126 71 44 122
-0.04419884 -0.19906183 -0.00111030 68 57 131
-0.12057638 -0.22021873 0.00330612 67 61 132
-0.10030141 0.05168961 -0.01251786 71 47 125
0.13923217 0.11626981 -0.02126321 72 38 119
0.14814110 0.18788205 -0.02264043 72 37 118
0.11560127 0.06809883 -0.01916557 72 41 121
-0.15404148 0.12272367 -0.01552256 71 45 123
0.14815919 -0.10347733 -0.01559787 71 44 122
0.06812547 -0.24413313 -0.01257399 71 47 125
0.02014558 0.26039928 -0.01708554 71 42 122
0.10804025 0.11597284 -0.01843740 72 41 121
0.03960200 0.24909693 0.13570119 30 155 138
0.02765450 0.17965972 -0.01292280 71 46 124
0.10001567 -0.14775977 -0.01262202 71 47 125
-0.13934375 -0.29457286 -0.00266882 69 56 130
-0.02803487 0.27665558 -0.03431609 72 27 109
0.09962332 0.09208410 -0.01894436 72 41 121
0.16908774 0.21014127 -0.03206825 72 29 111
-0.07658274 -0.24402210 -0.00568005 70 52 128
0.07550757 -0.02809320 0.01794508 63 72 137
-0.07003874 -0.29912606 -0.00619340 70 52 128
-0.01663093 0.10896054 -0.01570458 71 44 122
-0.14444584 -0.32993215 -0.00090259 68 57 131
0.09148706 -0.20348679 -0.02051828 72 40 120
0.03443846 -0.18565194 0.00382954 67 61 132
-0.19415891 -0.33079517 -0.01347816 71 46 124
-0.02947011 -0.11066199 0.04990624 52 97 141
0.11360504 -0.07511784 -0.01527183 71 45 123
-0.14063424 0.08249014 -0.01506364 71 45 123
-0.15586522 0.02829854 -0.01115161 70 48 126
-0.17565364 -0.27671641 -0.02095496 72 40 120
-0.02607927 0.24407241 0.13747619 30 156 137
0.05216963 -0.21202797 -0.01209454 71 47 125
0.05978060 0.11615626 -0.01679133 71 44 122
-0.07968616 0.00690422 -0.00272968 69 56 130
0.15379825 -0.18585640 -0.00739137 70 51 127
-0.02766042 0.02163534 -0.01147456 71 47 125
0.03499437 -0.26028851 -0.00731254 70 51 127
0.02236603 0.18169098 0.08151067 42 118 142
-0.18078659 0.11612246 -0.02050488 72 40 120
-0.05232662 0.05988595 -0.01266323 71 47 125
0.02630010 0.21575892 0.11259797 34 139 141
0.15947267 -0.00774636 -0.01594710 71 44 122
0.14067999 0.06008463 -0.01956806 72 41 121
0.14855632 0.24445981 -0.02279848 72 37 118
0.05273528 0.09743565 0.01122612 65 66 135
0.10784025 0.15606444 -0.01967802 72 41 121
0.10418060 0.23243247 0.08933547 40 124 142
0.04938205 0.29931495 -0.02798207 72 33 115
0.06489963 0.22949235 0.09958714 38 130 142
0.05989015 0.06820576 -0.01878122 72 41 121
0.02964607 -0.21224169 -0.01635670 71 44 122
0.17694829 0.09191832 -0.02268943 72 37 118
0.08299993 0.24614723 0.08787598 41 123 142
-0.06018212 0.21924239 0.09278000 39 126 142
-0.07578996 -0.21967576 -0.01001136 70 48 126
0.13217792 0.15606372 -0.02100724 72 40 120
0.07610569 0.18814214 -0.02027544 72 40 120
0.09960533 0.18006603 -0.02070144 72 40 120
-0.05202213 -0.00442252 0.01166872 65 68 135
-0.14348114 -0.26552224 -0.00601962 70 52 128
-0.09977275 -0.31681812 -0.00846241 70 51 127
0.06808780 0.04327057 -0.01715402 71 42 122
-0.04735464 0.14528681 0.03835481 56 89 140
-0.19091129 -0.17964610 -0.03553260 72 26 108
-0.01830387 -0.06712855 -0.00158678 69 56 130
0.02363362 0.16934180 0.02706606 60 80 139
0.05280191 0.07045835 0.02709148 60 80 139
0.03959656 0.06495643 0.00082767 68 58 131
0.02004395 0.25284362 0.14584146 31 161 135
-0.06020545 -0.02803718 0.01031927 65 66 135
-0.18242775 -0.09012198 -0.01375043 71 46 124
-0.05222618 0.10908208 -0.01623473 71 44 122
0.09662402 -0.07369026 0.01794621 63 72 137
-0.19536631 0.03650238 -0.01239315 71 47 125
0.13128512 -0.00403776 -0.01962686 72 41 121
-0.03451583 -0.27574381 -0.00650075 70 52 128
-0.01696140 -0.23507854 -0.00522302 69 53 129
0.17951912 -0.10189766 -0.01534052 71 45 123
0.02545765 0.00924755 0.01026580 65 66 135
-0.05189406 0.22160874 0.21879503 105 205 91
-0.02156415 -0.14230475 0.00044208 68 58 131
-0.00486016 -0.27685577 -0.02707165 72 33 115
-0.06758495 0.23623531 0.13468659 31 154 138
0.03118204 0.24280390 -0.01119454 70 48 126
0.04320098 0.21325418 -0.01500871 71 45 123
-0.01946112 -0.02750461 -0.00326884 69 55 129
0.05663691 -0.17728484 -0.00645385 70 52 128
-0.05474413 0.16551408 0.07358101 44 113 142
-0.03548983 -0.07829209 0.03926279 56 89 140
-0.04744133 0.18556795 0.03926383 56 89 140
-0.05893031 0.24402788 0.11560643 34 141 141
0.13302793 0.02602105 -0.02435925 72 36 117
0.17612416 0.16054486 -0.02457362 72 36 117
0.10008055 0.22679168 -0.01969337 72 41 121
0.07097986 -0.01791110 -0.00439317 69 53 129
-0.01235846 0.05183722 -0.01421733 71 45 123
0.02126290 0.28387979 -0.01742943 71 42 122
-0.07653999 0.20647043 0.11320511 34 140 141
-0.08728153 0.25995877 0.15336370 33 166 133
-0.11552420 0.01234671 -0.01135219 71 47 125
-0.19371514 0.00203390 -0.00896539 70 50 126
0.16327623 -0.11378969 -0.02480291 72 36 117
0.01400678 0.24327424 0.20146319 80 196 106
0.00755301 0.27020246 0.19350947 70 192 111
-0.14627086 -0.35627502 -0.02002636 72 40 120
0.13219474 -0.20387775 -0.00688747 70 52 128
0.17283909 -0.02996393 -0.01569383 71 44 122
0.00427244 0.14806123 -0.01820526 71 42 122
-0.12570994 -0.33704808 0.00255403 68 59 132
-0.01163121 -0.10805010 0.02839538 59 81 139
-0.12108770 -0.02015360 -0.00690764 70 52 128
0.02270510 0.20304465 -0.00366225 69 55 129
-0.00285817 0.25110304 0.23593356 137 213 72
-0.02599216 -0.16970757 0.00835124 66 64 134
0.01196846 0.27296442 0.22006167 108 205 90
-0.08164209 0.13873102 -0.01603158 71 44 122
0.03361493 0.16558437 0.05175195 51 98 141
-0.00188729 -0.04398271 -0.03493930 72 27 109
-0.00303054 0.23961449 0.15248159 33 166 133
0.06737959 -0.15865700 0.01835299 62 73 137
0.00857249 0.17237131 0.01332474 64 69 136
-0.19938666 0.12150712 -0.01572236 71 44 122
0.11349968 -0.18696339 -0.01664578 71 44 122
0.13961862 -0.15600277 -0.01942358 72 41 121
0.00789189 0.28470922 0.15439467 34 167 133
0.08996954 -0.12443194 0.01300331 64 69 136
-0.17741905 -0.06050665 -0.00976911 70 50 126
0.16024318 -0.17913601 -0.02480438 72 36 117
0.13175648 -0.03621121 -0.01669892 71 44 122
0.08406816 0.28563973 -0.03316182 72 28 110
-0.04205072 0.25637755 -0.03249311 72 28 110
0.04406883 0.20241144 0.09193212 39 126 142
0.10205290 0.25391570 -0.02545326 72 35 116
-0.02027221 -0.00297985 0.00268357 68 59 132
-0.08219454 0.17912766 0.09356234 39 127 142
0.04295570 0.00238303 0.00400340 67 61 132
-0.01926913 -0.13245028 0.02752628 60 80 139
-0.06576713 0.14980128 0.07096551 45 112 142
0.06971028 0.26183081 0.10797129 35 136 142
0.05053094 0.26486063 0.13513151 31 154 138
-0.04372616 -0.15731001 0.02517631 61 78 138
0.05916301 0.26028863 -0.02684609 72 33 115
0.16412589 0.22807534 -0.02764121 72 33 115
-0.04216342 -0.03623302 0.01323612 64 69 136
0.10954372 -0.13708307 -0.02519969 72 36 117
0.13812393 0.20399243 -0.02538536 72 36 117
0.13153411 0.23639676 -0.02557214 72 35 116
-0.19801126 -0.19567719 -0.02141567 72 38 119
-0.17913739 -0.02913662 -0.00862137 70 50 126
-0.06672068 -0.20313992 -0.00897208 70 50 126
0.15612285 -0.14291087 -0.02570138 72 35 116
0.03202963 0.24778876 0.21047233 94 201 98
0.00436325 -0.02244544 -0.01764907 71 42 122
-0.14003231 0.10827734 -0.01488528 71 45 123
0.00556052 -0.09365491 -0.01054242 70 48 126
0.13997076 -0.07603175 -0.01897508 72 41 121
-0.00612866 0.26013616 0.17097560 45 178 125
0.04380517 0.13190632 -0.01802351 71 42 122
-0.19599840 0.08410227 -0.01936918 72 41 121
-0.00477889 -0.12397240 -0.00388787 69 55 129
-0.01286356 0.01517273 0.00664216 66 63 133
-0.13671015 -0.23574002 0.00409189 67 61 132
-0.11520048 0.14676210 -0.00748545 70 51 127
-0.02896291 0.24429949 0.24093519 144 215 67
-0.11574093 0.03604157 -0.01460758 71 45 123
-0.02792107 0.22686447 0.22151585 110 206 88
0.08230315 -0.05289306 -0.00378741 69 55 129
-0.00616156 -0.21199448 -0.00868446 70 50 126
0.03998441 0.18728557 0.05492777 50 100 142
-0.00491011 0.21714973 0.20706630 88 199 101
0.15582052 0.13216697 -0.02141529 72 38 119
0.08895592 -0.22482102 -0.02460037 72 36 117
-0.07688008 -0.28148627 -0.01384674 71 46 124
-0.06785219 0.04375052 -0.01275284 71 46 124
-0.00537341 -0.26029903 -0.01922258 72 41 121
0.02036358 -0.24952312 -0.00499655 69 53 129
0.02046460 -0.22542325 -0.00758210 70 51 127
-0.16414513 0.01231869 -0.01412892 71 45 123
0.03547379 0.19582278 -0.01953444 72 41 121
-0.06211033 0.00889687 0.00321752 67 61 132
-0.13173652 0.00445061 -0.01351538 71 46 124
0.09947690 0.05959832 -0.01970744 72 41 121
-0.01196294 0.28494260 -0.03583982 72 26 108
-0.17361516 -0.24872033 -0.00769714 70 51 127
0.14772433 0.10000553 -0.02141975 72 38 119
0.06005786 -0.22839949 -0.00840723 70 51 127
0.11607383 0.19611262 -0.02051506 72 40 120
0.10787505 -0.00398777 -0.01718761 71 42 122
0.15610558 0.20381512 -0.02020368 72 40 120
0.13182098 0.07594351 -0.01892928 72 41 121
0.10800161 0.02790760 -0.01649728 71 44 122
-0.04340555 0.01768641 -0.00352597 69 55 129
-0.01237951 0.15595657 -0.01947814 72 41 121
0.04570209 0.22589719 0.11863820 33 144 141
0.01200742 -0.00231423 0.00538483 67 62 133
-0.04356819 0.07618685 -0.01263680 71 47 125
0.13308063 -0.13413110 -0.01356875 71 46 124
-0.05523570 0.23487531 0.09975287 38 130 142
-0.08406973 0.07560035 -0.01419806 71 45 123
-0.02566304 -0.05732204 0.03399014 57 85 140
-0.00440143 -0.05989459 -0.01240501 71 47 125
0.14629504 -0.09783869 -0.03387322 72 28 110
-0.17205331 0.03635578 -0.01041760 70 48 126
0.15238145 -0.21649602 -0.02940455 72 32 113
-0.07881507 -0.26279163 -0.01622525 71 44 122
-0.13957441 0.04375097 -0.01268275 71 47 125
-0.10780099 0.10829549 -0.01446316 71 45 123
0.06874380 0.17213027 -0.01879864 72 41 121
0.10088401 -0.02777104 -0.01644738 71 44 122
0.07605150 0.13192473 -0.02182612 72 38 119
0.06860837 0.20394434 -0.02276771 72 37 118
0.17247200 0.03618068 -0.01754463 71 42 122
0.14010380 0.17176844 -0.02117206 72 40 120
0.06861496 -0.20401715 -0.01018107 70 48 126
-0.05944503 0.18050380 0.08363218 42 120 142
-0.04456077 0.20194705 0.05406547 50 100 142
-0.15572132 -0.01952854 -0.00999703 70 48 126
-0.18000621 0.09172845 -0.02133139 72 38 119
0.11560363 -0.16409086 -0.01466253 71 45 123
0.14017515 0.13983816 -0.02021624 72 40 120
-0.00429531 -0.07821649 -0.00960825 70 50 126
0.01206594 0.01996038 -0.01250905 71 47 125
-0.12456556 0.07567073 -0.01375071 71 46 124
-0.05218895 0.13185838 -0.01771527 71 42 122
-0.18039408 0.05864640 -0.02211366 72 38 119
-0.10018700 0.09172275 -0.01423084 71 45 123
-0.17930123 -0.32147956 -0.00794993 70 51 127
0.06307569 0.24101415 -0.03228691 72 29 111
-0.00616648 -0.09330483 0.02132511 62 76 138
0.02868856 0.05874274 -0.01201162 71 47 125
-0.15541463 -0.30065224 -0.00734826 70 51 127
-0.04492380 -0.21333370 -0.01068492 70 48 126
-0.10800862 -0.21176076 -0.00483904 69 53 129
0.05023301 -0.25233310 -0.00780392 70 51 127
-0.15303040 0.07084287 -0.01256114 71 47 125
0.17176302 0.00417354 -0.01728206 71 42 122
0.06076294 0.08398641 0.02016108 62 74 137
-0.12421582 0.11621980 -0.01559838 71 44 122
0.04285749 0.01205788 -0.01984680 72 40 120
-0.14091346 -0.31316867 -0.00101986 68 57 131
0.05080331 0.09941626 -0.01338569 71 46 124
-0.10688615 -0.19512129 -0.00860526 70 50 126
0.06076057 0.27659962 -0.02198966 72 38 119
-0.10006995 -0.28400889 -0.00613799 70 52 128
0.17197035 0.07596874 -0.01938444 72 41 121
-0.15673310 -0.05931818 -0.01702244 71 42 122
0.02068396 0.15019417 0.05693299 49 102 142
0.06708037 0.23610820 0.08407436 42 120 142
-0.01980756 0.03630997 -0.01493513 71 45 123
-0.05221082 0.03610976 -0.01229451 71 47 125
0.09185471 0.00450560 -0.01705179 71 42 122
-0.19741356 -0.16451487 -0.02648238 72 35 116
-0.08416947 0.22785582 0.13947198 30 157 137
-0.02720943 -0.28089264 -0.02082406 72 40 120
0.08352101 -0.14071751 -0.01250884 71 47 125
0.16422018 0.17203081 -0.02170177 72 38 119
0.03584010 0.03574272 -0.01806351 71 42 122
0.13206716 -0.10782590 -0.01725738 71 42 122
0.07522061 -0.00488177 -0.01503738 71 45 123
-0.03227764 0.24250154 0.15294279 33 166 133
0.03684539 0.25980952 -0.01794954 71 42 122
0.11626843 -0.04390306 -0.01521254 71 45 123
-0.08968595 -0.25135928 0.00164505 68 59 132
-0.11615324 -0.23586559 -0.00452378 69 53 129
0.03642116 0.17244074 0.06753075 46 109 142
0.11514041 0.24426910 0.09980846 38 130 142
0.16370218 0.05207613 -0.01781171 71 42 122
-0.07598156 -0.03369139 0.01374202 64 69 136
0.09211385 -0.18797940 -0.01447419 71 45 123
0.00377910 0.04411358 -0.01507428 71 45 123
-0.03355620 -0.03620528 -0.00218716 69 56 130
0.00641881 0.23334730 0.22226854 112 207 87
-0.01060396 -0.10875869 0.04969863 52 97 141
-0.07617740 0.19620097 0.10032606 37 131 142
-0.05228398 -0.14082275 0.03513552 57 85 140
0.03802930 0.22975673 -0.01855057 72 41 121
-0.03752175 -0.25950781 -0.00912965 70 50 126
0.08259800 0.05075334 -0.01560974 71 44 122
0.07664970 0.02775622 -0.01797011 71 42 122
0.06804257 0.15578903 -0.01845052 72 41 121
-0.01780633 0.25168473 0.17870601 52 182 121
-0.07568927 0.02803933 -0.01264812 71 47 125
0.07730781 -0.17221215 -0.00957632 70 50 126
-0.06032482 -0.24278823 -0.00705174 70 52 128
-0.08410728 0.11626796 -0.01730556 71 42 122
0.05936904 0.24388236 0.10794305 35 136 142
0.03078445 -0.19589010 -0.01027373 70 48 126
0.08396488 0.09965537 -0.01773305 71 42 122
-0.05719679 0.19604926 0.07603269 44 114 142
-0.01975038 -0.04381941 -0.00597259 70 52 128
-0.00877891 -0.10603097 -0.00344372 69 55 129
-0.11567140 0.06081772 -0.01486782 71 45 123
-0.01852658 -0.07452149 0.04221615 55 91 141
-0.03037167 0.29706568 -0.03163195 72 29 111
-0.04625624 0.25063661 0.12317576 32 146 140
-0.06816974 0.10648812 -0.01556840 71 44 122
-0.02813306 -0.05453775 0.05003440 52 97 141
0.04434719 0.14803174 -0.01888885 72 41 121
-0.02953916 0.31790140 -0.03569791 72 26 108
-0.02738885 -0.13219067 0.01158123 65 68 135
0.06382573 -0.15927354 0.00265193 68 59 132
0.12128648 0.26260337 -0.02430353 72 36 117
-0.03178406 -0.09208494 0.04825662 52 96 141
-0.04372459 0.15296486 -0.01321338 71 46 124
-0.00425197 0.17141403 0.00378467 67 61 132
0.15565470 0.06802326 -0.02022566 72 40 120
0.17778435 0.12405907 -0.01990226 72 40 120
0.12400284 0.10798018 -0.01907078 72 41 121
-0.01922928 0.25415707 0.23293875 129 211 77
0.09972233 0.07609555 -0.01889174 72 41 121
0.05987985 0.20461242 0.09186948 39 126 142
0.10019430 -0.13194111 -0.01085064 70 48 126
-0.05402093 0.17191499 0.04404553 54 93 141
-0.08994620 -0.32505006 0.00106782 68 58 131
-0.04493746 0.25706339 0.10340352 37 133 142
-0.07220232 -0.16628778 0.01636347 63 71 136
0.14793932 -0.17210226 -0.01263049 71 47 125
-0.17987588 -0.33962345 -0.01268950 71 47 125
0.10792198 0.04369386 -0.01741654 71 42 122
-0.08362862 0.04383216 -0.01275233 71 46 124
0.08247168 -0.03567224 0.00421873 67 61 132
-0.02603163 -0.12724106 0.04664457 53 95 141
0.16403461 -0.04286898 -0.01769240 71 42 122
-0.03087293 -0.05521889 0.01929695 62 73 137
-0.03634090 0.10749676 -0.01641019 71 44 122
0.08426284 0.08395141 -0.01830872 71 42 122
-0.02268862 -0.25227341 -0.00719493 70 51 127
-0.16304743 -0.33183473 -0.00634064 70 52 128
0.10090249 -0.11523265 -0.01547547 71 45 123
-0.05079709 -0.07596945 0.05328194 51 99 141
0.10700833 -0.20431706 -0.01944324 72 41 121
-0.11562588 0.13218804 -0.01288060 71 46 124
0.07451389 -0.14726043 0.00390130 67 61 132
0.17738560 0.10799958 -0.02065119 72 40 120
0.07480700 -0.12681989 0.01060216 65 66 135
-0.06324385 0.20757076 0.10527240 36 134 142
0.13202779 -0.02027899 -0.01965946 72 41 121
-0.03564680 -0.00457634 0.00404637 67 61 132
0.03620317 0.29255784 -0.02065442 72 40 120
0.09992846 -0.08430959 -0.01327490 71 46 124
-0.02012501 0.12385068 -0.01821055 71 42 122
-0.12936234 -0.33451512 -0.01228834 71 47 125
-0.03939537 0.27411029 -0.02144589 72 38 119
0.05397482 0.25216010 0.12701517 31 148 140
0.01946435 0.27814126 0.14336808 31 160 136
-0.04349142 -0.10904755 0.05620544 50 101 142
-0.02101165 0.25509220 0.12787864 31 149 139
0.11640612 -0.06005178 -0.01369589 71 46 124
-0.00107163 0.01457238 -0.00324003 69 55 129
0.05578685 -0.00840711 0.00132477 68 58 131
-0.13259642 -0.01208469 -0.01308224 71 46 124
0.09175209 0.01977579 -0.01849250 72 41 121
0.10003335 -0.06799902 -0.01489238 71 45 123
-0.09175197 0.01282372 -0.01016884 70 48 126
-0.17315960 0.12933391 -0.02101997 72 40 120
-0.09213149 -0.21973638 -0.00963379 70 50 126
0.14019039 0.04425861 -0.01781927 71 42 122
0.04274321 0.17989574 -0.02120800 72 38 119
0.13232265 0.01255299 -0.01751769 71 42 122
-0.03475602 -0.14587219 0.03308856 58 84 140
0.06113674 0.01181798 -0.01846373 72 41 121
-0.02700397 0.16178451 -0.00694347 70 52 128
-0.06883473 0.22217548 0.12937580 31 150 139
0.05709423 0.08987547 -0.00355199 69 55 129
-0.01657419 -0.14826252 -0.01344989 71 46 124
-0.00412709 0.00149758 0.00616891 66 63 133
0.05098223 0.20400432 0.06782836 46 110 142
0.09667550 -0.09122866 0.01375865 64 69 136
0.00995164 0.15694577 0.02273753 61 77 138
0.00651023 0.26028013 0.22878785 124 210 80
-0.01283619 0.06672888 -0.01324901 71 46 124
0.03538590 0.20914395 0.10194102 37 132 142
-0.04158071 0.13466604 0.04699479 53 95 141
0.16471244 0.10060439 -0.01879463 72 41 121
-0.19685324 0.02045419 -0.00887330 70 50 126
-0.05522896 0.14149769 0.06484289 47 107 142
-0.17900728 0.00301762 -0.00865251 70 50 126
0.06747096 -0.01397085 0.01031228 65 66 135
0.14585587 -0.20413230 -0.01409988 71 46 124
0.08170103 -0.24071652 -0.01680566 71 44 122
-0.13959982 0.12376866 -0.01348057 71 46 124
-0.07688110 0.24966192 0.13904753 30 157 137
0.10819099 0.14002463 -0.02156320 72 38 119
0.13211665 0.25110766 -0.02489681 72 36 117
-0.01557250 -0.16171837 -0.00162834 69 56 130
-0.11548072 -0.34335181 -0.01111072 70 48 126
0.15022281 0.25895354 -0.02402337 72 36 117
-0.15537277 0.08965772 -0.01495336 71 45 123
0.16494736 0.01958767 -0.01725693 71 42 122
-0.08164463 -0.30670220 -0.00224833 69 56 130
0.03350214 0.16684133 0.03720010 56 88 140
0.02905365 0.19301367 0.08733799 41 122 142
-0.14714822 0.01266935 -0.01471669 71 45 123
-0.18036015 -0.04326706 -0.01068369 70 48 126
-0.03494399 0.21251839 0.21832630 105 205 91
0.00353781 0.25170827 0.14874679 32 163 134
-0.18498406 -0.35499066 -0.01524709 71 45 123
-0.14954783 -0.04404185 -0.01381394 71 46 124
-0.01198321 -0.24461654 -0.01450911 71 45 123
-0.05509074 0.17358600 0.05952711 49 104 142
-0.08394137 0.15226172 -0.01246460 71 47 125
0.00842905 -0.26360318 -0.01519269 71 45 123
0.04355993 0.06722149 -0.01252536 71 47 125
-0.18828715 -0.20366612 -0.02779482 72 33 115
0.17009018 -0.06660458 -0.01911833 72 41 121
0.01181344 -0.01286499 -0.00390569 69 55 129
0.14057286 -0.08629708 -0.02844590 72 32 113
0.08387492 0.14808367 -0.02121740 72 38 119
-0.08996595 0.20320903 0.11799485 33 143 141
-0.04991980 -0.03877217 0.02561754 60 79 138
-0.04764098 0.22449355 0.08976510 40 124 142
0.03895881 -0.18148750 0.01631039 63 71 136
-0.09369123 -0.02354318 0.00700215 66 63 133
-0.10058005 0.13995109 -0.01466838 71 45 123
0.09068820 -0.05972935 0.00487168 67 62 133
0.05343598 0.20965473 -0.02507384 72 36 117
0.17174189 -0.12993270 -0.01245202 71 47 125
-0.18143931 -0.07632230 -0.01345312 71 46 124
-0.00846916 0.24871309 0.16353062 38 173 129
0.09136396 0.23467751 0.09402499 39 127 142
-0.04626012 0.24793427 -0.01803781 71 42 122
0.01929945 0.25977281 0.21844238 105 205 91
0.05897986 0.22022085 0.09132861 40 125 142
0.01963740 0.11845437 -0.01647498 71 44 122
-0.06787252 -0.28951305 -0.02041906 72 40 120
0.13162652 -0.21912433 -0.01229726 71 47 125
-0.01151850 0.22243819 0.21786951 105 205 91
0.08555820 0.22968395 -0.01836584 72 41 121
0.11516286 -0.10778902 -0.01749458 71 42 122
-0.05029700 -0.01245605 -0.00057988 68 57 131
-0.02679724 -0.15414001 0.00491454 67 62 133
-0.18977273 -0.28402391 -0.02603092 72 35 116
-0.00343243 0.11688785 -0.01661378 71 44 122
0.14711729 0.02832510 -0.02254355 72 38 119
0.14222740 -0.11714640 -0.01536702 71 45 123
-0.09506130 -0.00913419 -0.00114733 68 57 131
0.00320897 -0.12404875 -0.01641203 71 44 122
0.04427596 0.23807885 0.12927137 31 150 139
-0.05863861 -0.17942244 0.00351051 67 61 132
-0.04959053 0.00961965 0.00828454 66 64 134
0.14319572 -0.13928041 -0.02412328 72 36 117
-0.05378556 0.22683540 0.06909176 46 110 142
0.07074282 0.25420171 -0.02371192 72 37 118
-0.01678524 -0.08352314 0.01280711 64 69 136
-0.05654536 -0.26252446 -0.00712066 70 51 127
0.00173934 0.26270667 0.18150291 55 184 120
0.09416699 -0.06054334 0.01845484 62 73 137
-0.01420835 -0.10731860 0.01079392 65 66 135
-0.01244656 0.16939898 -0.02080952 72 40 120
-0.01365995 -0.19372061 -0.00874159 70 50 126
0.02720266 0.15654825 0.04436917 54 93 141
0.11591338 0.22785005 -0.02627582 72 35 116
-0.11778489 0.08681829 -0.01622653 71 44 122
0.05202568 0.22781749 -0.02158065 72 38 119
0.04300401 0.19606453 0.04543318 53 94 141
0.01950315 0.23844011 0.21254133 96 202 96
-0.12909500 -0.03487158 -0.00673127 70 52 128
-0.05636632 0.20871291 0.07973596 43 117 142
0.12375441 0.12355025 -0.02212493 72 38 119
0.08692019 0.25734335 0.09365006 39 127 142
0.00404309 -0.22003883 -0.00643339 70 52 128
0.09960477 0.24589264 0.09206222 39 126 142
0.03619775 0.25980359 0.14251527 31 159 136
0.14402443 -0.05570593 -0.01733667 71 42 122
0.08660081 -0.11761391 0.00235011 68 59 132
0.04518643 -0.17721871 0.00548594 67 62 133
0.02264009 0.16705531 -0.01544395 71 45 123
-0.06540188 -0.28690904 -0.00655982 70 52 128
0.02282771 0.19000776 -0.00451742 69 53 129
0.13174938 0.22000645 -0.02587238 72 35 116
-0.12300888 -0.30291879 -0.00081306 68 57 131
-0.05242619 -0.23580296 -0.01662269 71 44 122
-0.18855283 0.06878837 -0.02177053 72 38 119
0.16392522 -0.01984913 -0.01766547 71 42 122
-0.03987211 0.25060970 0.13767856 30 156 137
0.00711226 0.13481547 -0.01623607 71 44 122
-0.01964441 0.13863847 -0.01700502 71 42 122
0.08061437 -0.13193296 -0.00251097 69 56 130
-0.00538829 -0.02785854 -0.01109974 70 48 126
-0.03057273 -0.16086726 0.01918458 62 73 137
0.12066995 0.03016213 -0.01596245 71 44 122
-0.00957970 0.26084816 0.24096800 144 215 67
0.05549997 0.04128907 -0.01565047 71 44 122
-0.18897615 0.10074800 -0.02291022 72 37 118
0.06453982 -0.13906713 0.00801235 66 64 134
-0.06792779 0.18735586 0.09420623 39 127 142
0.14766937 -0.01176358 -0.01872347 72 41 121
-0.08862410 -0.27771646 -0.01713060 71 42 122
-0.19508055 -0.06071716 -0.01378104 71 46 124
-0.00904185 0.23961975 0.14126278 31 159 136
-0.01049380 -0.08368867 0.02844463 59 81 139
0.06522943 -0.25631592 -0.01646458 71 44 122
-0.05567029 0.24465315 0.08788402 41 123 142
-0.04705641 -0.02333859 0.00926858 66 65 134
0.03828071 0.10318015 -0.00178904 69 56 130
0.00766724 -0.27872804 -0.02106409 72 40 120
0.05676419 0.17982432 -0.02450135 72 36 117
-0.06351569 -0.21698275 -0.00846501 70 51 127
0.13190386 -0.16401580 -0.01339057 71 46 124
0.08806010 0.27250248 -0.02332777 72 37 118
0.12578969 -0.12612256 -0.02412474 72 36 117
0.16408339 0.24046484 -0.02409118 72 36 117
0.08662537 -0.08306632 -0.00971393 70 50 126
0.00973127 0.27648261 0.16388170 39 173 129
-0.14788412 0.05932387 -0.01213733 71 47 125
0.16404627 0.18786077 -0.02226648 72 38 119
-0.10486639 -0.22539744 -0.00802848 70 51 127
0.05896111 0.22891493 0.11438411 34 141 141
-0.10940567 -0.32489893 -0.00823802 70 51 127
0.00689103 0.25764611 0.19355154 70 192 111
0.02845120 0.21100001 -0.01819813 71 42 122
-0.16709432 0.06517661 -0.01960711 72 41 121
0.15798545 0.00576862 -0.01567790 71 44 122
0.06054601 0.25934568 0.11617506 33 142 141
-0.06731836 0.13879481 -0.01647408 71 44 122
0.00000840 -0.24809416 -0.01337627 71 46 124
-0.10694217 0.02744865 -0.01217853 71 47 125
-0.02974910 0.30775610 -0.04390948 71 17 100
-0.06274281 -0.19480108 -0.01738739 71 42 122
0.06013163 -0.18780555 -0.01218551 71 47 125
-0.05592245 0.23277609 0.12000430 33 145 140
0.03873861 0.21566176 0.11213240 34 139 141
-0.02551234 -0.22551215 -0.00489519 69 53 129
-0.02797358 -0.01198053 -0.00235286 69 56 130
0.05203498 0.19753380 0.08373118 42 120 142
0.00395724 -0.06419690 -0.02052869 72 40 120
0.01700395 0.05739252 -0.01600680 71 44 122
-0.19850445 -0.25869471 -0.01712030 71 42 122
0.03728537 -0.00270054 0.01379049 64 69 136
0.07893294 0.23320828 0.08865114 41 123 142
0.09759644 0.19174014 -0.02427474 72 36 117
0.15499653 -0.10214005 -0.02581439 72 35 116
-0.05116640 0.17729016 0.03087460 59 82 139
0.04686897 0.26124546 -0.02607390 72 35 116
0.10846289 0.21218656 -0.02035759 72 40 120
0.15058373 -0.04290906 -0.01932687 72 41 121
-0.16423321 0.11613201 -0.01759623 71 42 122
-0.10109096 0.00481772 -0.01058764 70 48 126
-0.08126599 -0.19991116 -0.00705698 70 52 128
-0.19155993 -0.34229410 -0.01694904 71 42 122
-0.12510344 0.04963782 -0.01525441 71 45 123
-0.03565253 0.13959397 -0.01735287 71 42 122
0.01317953 0.01101109 -0.00417800 69 55 129
0.06374675 -0.00071547 -0.01623943 71 44 122
-0.08489080 -0.29675335 -0.00965250 70 50 126
-0.07505657 0.08387394 -0.01362607 71 46 124
-0.08540712 -0.22972327 -0.00738617 70 51 127
0.12479597 0.06017974 -0.01757026 71 42 122
-0.05681628 0.25612351 0.11210546 34 139 141
-0.08352262 0.18252321 0.10523256 36 134 142
-0.03645993 0.05976865 -0.01391166 71 46 124
0.04940063 -0.26552314 -0.00779350 70 51 127
0.17377007 -0.11467603 -0.01674055 71 44 122
-0.01306117 0.01690080 -0.00543140 69 53 129
0.00048205 0.22396013 0.21663320 103 204 92
-0.05108787 0.15433624 0.03114863 58 83 139
0.07269768 0.11064083 -0.01584823 71 44 122
0.09219018 -0.03609903 -0.01491660 71 45 123
0.15602437 -0.07536234 -0.02234681 72 38 119
0.03221995 0.22309488 0.12022507 33 145 140
0.16400935 0.14799117 -0.02024409 72 40 120
0.00443940 0.24446642 0.22888932 124 210 80
-0.10614154 -0.01694793 -0.00257027 69 56 130
0.01731825 0.25782967 0.19979823 78 195 107
0.11289253 0.27378234 -0.02583467 72 35 116
-0.18093544 0.04923006 -0.01453902 71 45 123
-0.02175528 -0.13693240 0.04080355 55 90 140
0.06881444 0.06008282 -0.01797725 71 42 122
-0.13702232 -0.34351185 -0.01478893 71 45 123
0.01980112 0.26785693 0.14965285 32 164 134
0.11572401 0.17180264 -0.02079954 72 40 120
0.15178245 -0.14767526 -0.01553971 71 44 122
-0.05670219 0.24862188 0.13210553 31 152 139
0.11626401 -0.09203165 -0.01870199 72 41 121
-0.02611148 -0.05803631 -0.00110800 68 57 131
-0.03153942 0.08165621 -0.01815241 71 42 122
0.12514690 -0.06944465 -0.01665211 71 44 122
-0.16433334 -0.02785808 -0.00955648 70 50 126
0.09138977 -0.15597342 -0.01355170 71 46 124
0.08346774 -0.21230614 -0.02022178 72 40 120
-0.09869085 -0.30501539 -0.00719239 70 51 127
-0.01776784 -0.28517163 -0.02667679 72 35 116
0.03021679 0.00751983 -0.00050663 68 57 131
-0.02797959 0.23605619 0.22906981 124 210 80
0.11623923 -0.14126493 -0.01339636 71 46 124
-0.00692800 0.14476211 -0.01592624 71 44 122
-0.16575453 -0.05961452 -0.00764181 70 51 127
-0.07020342 0.01518002 -0.00962496 70 50 126
0.17531328 0.17677481 -0.02482913 72 36 117
0.02805714 0.02761375 -0.01428601 71 45 123
-0.07633805 0.21424781 0.12216401 32 146 140
0.05083154 0.07062335 -0.00379906 69 55 129
0.14396882 -0.19189221 -0.01013449 70 48 126
-0.18593752 -0.01566519 -0.00762725 70 51 127
0.05553821 -0.24569406 -0.01604570 71 44 122
-0.04370258 0.02791360 -0.01262136 71 47 125
-0.00453956 -0.06870081 0.04766407 53 95 141
-0.01333273 -0.05218546 -0.01266824 71 47 125
0.02970452 0.24391909 0.13948739 30 157 137
-0.08569542 0.08823751 -0.01618585 71 44 122
-0.09202261 0.06003397 -0.01181623 71 47 125
-0.14752205 0.09948562 -0.01715376 71 42 122
0.04391567 0.11591900 -0.01780685 71 42 122
0.08425750 0.17970151 -0.01944203 72 41 121
-0.04704456 0.19732285 0.06526465 47 108 142
-0.12642528 -0.28902897 0.00059862 68 58 131
-0.02786604 -0.06846707 0.04592933 53 94 141
-0.04151938 -0.04678220 0.04135097 55 91 141
-0.04595481 0.09864683 -0.01512053 71 45 123
-0.02040874 0.00498055 0.01126425 65 66 135
0.11706447 0.25217465 -0.02108880 72 40 120
0.13956074 0.09171228 -0.02021778 72 40 120
0.03867333 0.00677492 -0.01028993 70 48 126
0.00185205 0.26949474 0.16895470 42 176 127
0.02674766 0.17364457 0.07396992 44 113 142
-0.15475330 -0.32421231 -0.00324721 69 55 129
0.09152322 -0.06000136 -0.01492958 71 45 123
0.02318780 0.20881966 0.10323091 37 133 142
0.09183450 0.12364563 -0.02023484 72 40 120
0.03588599 0.16410954 -0.02025794 72 40 120
-0.05085757 -0.18409349 -0.00987349 70 50 126
0.09241165 -0.08211292 0.00787485 66 64 134
0.00127394 0.24277100 0.19090486 66 190 113
-0.06644999 -0.22818856 -0.00720717 70 51 127
-0.12383720 -0.00442808 -0.01246051 71 47 125
0.09207811 0.10799435 -0.01738556 71 42 122
-0.08176327 -0.04174225 0.01983461 62 74 137
-0.00080502 0.25657430 0.15971339 37 171 130
0.15658025 -0.16711465 -0.02439314 72 36 117
0.00003526 -0.05277622 -0.02762519 72 33 115
0.10791168 0.10011056 -0.01779365 71 42 122
0.13603480 -0.04692153 -0.01561320 71 44 122
-0.03525558 0.28360343 -0.02660568 72 35 116
0.08424966 -0.19644405 -0.01416990 71 45 123
-0.01323539 -0.07580160 0.00410500 67 61 132
0.10837097 0.18743847 -0.02205932 72 38 119
0.02789549 0.13995823 -0.01958050 72 41 121
-0.12154157 -0.20986186 -0.00163277 69 56 130
0.00667341 0.27296963 0.23028632 127 211 78
0.02759849 0.26865050 -0.02005490 72 40 120
-0.01439575 -0.12822933 0.00078171 68 58 131
0.05518739 0.09667094 0.02243512 62 76 138
-0.18185401 0.13451448 -0.02647832 72 35 116
0.05109277 0.28289461 -0.02438858 72 36 117
0.10804419 0.08401041 -0.01885108 72 41 121
-0.13950711 0.06801607 -0.01143921 71 47 125
0.05850045 0.25985208 0.10052770 37 131 142
0.00118742 0.28162712 0.18947101 64 189 114
-0.06588876 -0.18847284 0.00061074 68 58 131
0.05183937 0.05949888 -0.02137643 72 38 119
0.12395071 0.14822486 -0.01959258 72 41 121
0.06802909 0.07611182 -0.01726460 71 42 122
0.02628750 -0.19305845 0.00072023 68 58 131
-0.01616672 0.24116255 0.17453504 47 180 124
-0.02659279 0.29347572 -0.04180715 72 20 103
-0.04582456 -0.22628362 -0.01397047 71 46 124
-0.18870544 0.12425137 -0.02182127 72 38 119
-0.01448709 -0.12208598 0.02785211 60 80 139
0.06847693 0.12442343 -0.01773575 71 42 122
0.01590431 -0.21504098 -0.00881058 70 50 126
0.16749871 -0.10329716 -0.02356169 72 37 118
0.16973540 0.20344368 -0.02290804 72 37 118
-0.08408044 -0.21194166 -0.01145869 71 47 125
0.04445739 -0.20372324 -0.01272889 71 46 124
0.14780013 0.07602517 -0.01846608 72 41 121
0.12136424 -0.17775756 -0.01717608 71 42 122
0.03575470 0.18021984 0.07606886 44 114 142
0.06221275 0.19458841 -0.02329685 72 37 118
0.01272713 0.26839507 -0.02016068 72 40 120
0.05771736 0.07738171 -0.01251214 71 47 125
0.02232799 -0.23873149 -0.00778951 70 51 127
-0.11571774 -0.18831994 -0.00614901 70 52 128
-0.15585814 0.10795046 -0.01781311 71 42 122
-0.09166785 0.10791671 -0.01396993 71 46 124
0.09988674 -0.19557415 -0.01875582 72 41 121
0.15589263 0.10807980 -0.01907505 72 41 121
0.08162675 -0.03756598 0.01740873 63 72 137
-0.08344232 -0.02021493 0.01037064 65 66 135
0.08396155 -0.02028259 -0.01433861 71 45 123
-0.06611180 0.00016598 0.00915110 66 65 134
0.06180751 0.26505494 0.13557732 30 155 138
0.13187408 0.10009759 -0.02088683 72 40 120
-0.02797458 0.05232972 -0.01410757 71 46 124
-0.03566945 -0.17267729 0.00341311 67 61 132
0.11005248 0.26184729 -0.02451301 72 36 117
0.06292815 0.02944326 -0.01554237 71 44 122
0.01191590 0.15578827 -0.02113397 72 40 120
-0.08432200 -0.25946370 -0.00467432 69 53 129
0.16497801 -0.05387351 -0.01556476 71 44 122
-0.08597013 0.25610077 0.14288709 31 160 136
0.11567639 0.05228696 -0.01746449 71 42 122
-0.00666512 -0.09302409 -0.00635985 70 52 128
0.05442175 0.06851746 0.01164029 65 68 135
-0.02819432 0.11612870 -0.01717229 71 42 122
0.06614017 0.22156896 0.08280257 42 119 142
-0.13045268 -0.32384992 0.00237396 68 59 132
0.13182092 -0.08349358 -0.02083841 72 40 120
-0.01985994 -0.11623817 0.05135398 51 98 141
-0.05988033 0.06814986 -0.01295784 71 46 124
0.04188423 0.17440027 0.04879211 52 96 141
-0.14722618 0.03560451 -0.01265419 71 47 125
0.14191192 0.23279913 -0.02352030 72 37 118
-0.08338076 -0.00746237 0.00439987 67 62 133
0.05189656 0.26503187 0.14621741 31 161 135
-0.06098786 -0.16244210 0.01978770 62 74 137
-0.06880888 -0.25108954 -0.00943826 70 50 126
0.13248298 0.18778940 -0.02199447 72 38 119
0.05927160 0.05146400 -0.01927312 72 41 121
0.05200522 0.12408862 -0.01768561 71 42 122
-0.04455080 0.05192457 -0.01313631 71 46 124
0.10037655 0.14796001 -0.02148474 72 38 119
-0.15647489 -0.03572244 -0.01123238 70 48 126
-0.02671837 0.16444370 -0.01774345 71 42 122
-0.04612642 0.19407192 0.04630348 53 94 141
0.08436815 0.19615404 -0.01947996 72 41 121
-0.02185948 -0.06219751 0.01264708 65 68 135
0.13146254 0.03585185 -0.01942869 72 41 121
0.14697619 0.12415498 -0.02234795 72 38 119
0.14013042 -0.02828693 -0.01666065 71 44 122
-0.16451015 -0.00380313 -0.01236797 71 47 125
-0.00355585 -0.06777829 -0.00464340 69 53 129
-0.12346624 0.02008425 -0.01107105 70 48 126
-0.03553945 -0.21923529 -0.01045926 70 48 126
-0.19261269 -0.18903145 -0.04118441 72 20 103
0.14816090 0.05192867 -0.01921406 72 41 121
-0.15563907 0.04371783 -0.01312947 71 46 124
0.15918276 -0.19014610 -0.02524230 72 36 117
-0.06783544 0.09223391 -0.01292980 71 46 124
0.05948258 0.22042245 0.10731194 35 136 142
0.08414628 -0.17993928 -0.01354413 71 46 124
-0.01181763 -0.01983983 -0.00548639 69 53 129
-0.18924770 -0.09880744 -0.01368729 71 46 124
0.15576369 0.17992172 -0.02195780 72 38 119
0.15714955 -0.03358557 -0.02422822 72 36 117
-0.05988443 0.05184036 -0.01263800 71 47 125
-0.18810596 -0.05207605 -0.01053135 70 48 126
-0.10111841 -0.04228594 0.01008487 65 66 135
0.04423906 -0.01143285 0.01190584 65 68 135
0.09215165 0.15576144 -0.02213965 72 38 119
0.02885084 0.04871081 -0.01652432 71 44 122
-0.02018639 0.24409847 0.22859681 122 209 81
0.10755014 -0.12425933 -0.01359246 71 46 124
0.02016016 0.14789504 -0.01994590 72 40 120
0.13955769 0.00437713 -0.01853518 72 41 121
0.07658628 -0.02793841 -0.00400702 69 55 129
0.10861516 -0.15583651 -0.01292187 71 46 124
-0.16293521 0.07616526 -0.01415261 71 45 123
0.14470714 -0.09589638 -0.02321525 72 37 118
-0.01225348 -0.03588215 -0.00521177 69 53 129
-0.09933864 0.03615420 -0.01116783 70 48 126
0.09156280 0.17195874 -0.02244839 72 38 119
0.03737644 0.02118245 -0.01743781 71 42 122
0.14833105 0.14791325 -0.02074985 72 40 120
0.05270422 -0.23640312 -0.00930429 70 50 126
0.06926543 -0.16502276 -0.00802851 70 51 127
-0.17201766 0.02048940 -0.01179814 71 47 125
-0.05984436 0.22808641 0.13104045 31 151 139
-0.01243684 -0.09978104 0.03542225 57 86 140
-0.17274657 -0.05081667 -0.00823739 70 51 127
0.10016292 0.01149859 -0.01669477 71 44 122
0.12371524 0.00403332 -0.01686771 71 44 122
0.04517154 0.19492760 0.06064008 49 104 142
-0.01110195 -0.11591525 0.03609743 57 86 140
0.06829958 -0.18014705 -0.00952874 70 50 126
0.12444333 0.02033494 -0.01850044 72 41 121
-0.05961071 -0.01209374 0.01253482 65 68 135
0.09596232 0.26231888 -0.02238008 72 38 119
-0.04755332 0.24712217 -0.03426442 72 27 109
-0.06804452 -0.01991347 0.01251061 65 68 135
0.12385318 -0.01212940 -0.01920463 72 41 121
0.09128624 -0.23656307 -0.01961773 72 41 121
-0.05367627 0.14807628 0.05208351 51 98 141
-0.02457172 -0.14382499 0.03011628 59 82 139
