ply
format ascii 1.0
element vertex 1024
property float x
property float y
property float z
property uchar red
property uchar green
property uchar blue
end_header
-0.19556366 -0.39602116 -0.00475206 69 53 129
-0.19646785 0.38708004 -0.00431690 69 53 129
0.19499539 -0.00451155 -0.00045428 68 57 131
-0.19615451 -0.00398983 -0.00453437 69 53 129
0.05744496 0.25419888 0.17695926 50 182 122
0.11511514 -0.31482786 -0.00134036 68 57 131
-0.00396751 0.12392835 -0.00239496 69 56 130
-0.00468915 -0.12408055 0.00134550 68 58 131
0.19633929 0.22665913 0.00012015 68 58 131
-0.19731030 0.19279835 -0.00426657 69 53 129
-0.17982587 -0.20392722 -0.00448042 69 53 129
-0.01957652 0.31509241 -0.00243829 69 56 130
-0.05157953 -0.30802381 -0.00325580 69 55 129
0.19529438 -0.17200013 -0.00031627 68 57 131
-0.08054906 0.19148026 0.12307808 32 146 140
0.05667937 0.00055081 0.01230493 65 68 135
0.13205749 0.10798474 -0.00093999 68 57 131
-0.06903997 -0.01136124 -0.00324926 69 55 129
0.06766597 0.22797875 -0.00153161 69 56 130
-0.12343214 0.10002913 -0.00368852 69 55 129
0.03229032 0.16710770 0.10227656 37 132 142
0.08441324 -0.20394282 -0.00160239 69 56 130
-0.08380891 0.21991591 -0.00323720 69 55 129
-0.14016098 -0.10006792 -0.00396899 69 55 129
0.11609742 -0.09209996 -0.00122815 68 57 131
-0.07635237 -0.20369534 -0.00331760 69 55 129
-0.04237038 0.28291088 0.15062109 32 164 134
-0.15678547 0.29207408 -0.00391900 69 55 129
-0.15519659 -0.30026656 -0.00432827 69 53 129
-0.09173573 -0.39616969 -0.00362930 69 55 129
0.02760506 -0.36210030 -0.00233634 69 56 130
0.19536331 -0.26798639 -0.00052626 68 57 131
0.03618639 -0.27607545 -0.00218329 69 56 130
0.04519869 -0.07594720 0.04936602 52 96 141
-0.10367745 0.35206687 -0.00334260 69 55 129
-0.01163097 0.04401455 -0.00254314 69 56 130
0.19501224 -0.08422897 -0.00048471 68 57 131
0.00417343 -0.20399661 -0.00254072 69 56 130
0.07703187 0.06825694 0.04628937 53 94 141
-0.19612272 0.07642421 -0.00449372 69 53 129
-0.00404958 0.20383294 -0.00232280 69 56 130
0.06827111 0.14793438 -0.00157419 69 56 130
0.19666542 0.14637505 0.00008926 68 58 131
0.13237807 0.18802033 -0.00079898 68 57 131
0.12408880 0.02793211 -0.00105502 68 57 131
-0.00402154 -0.04385777 0.00141811 68 59 132
0.19457769 0.06815166 -0.00020700 68 57 131
-0.13184653 0.02798153 -0.00380811 69 55 129
-0.07304560 -0.08315162 0.01115121 65 66 135
-0.00661083 0.25312448 0.20214044 82 197 105
0.06640064 -0.13836376 0.00732515 66 64 134
0.12961876 0.25679940 -0.00099661 68 57 131
-0.06784986 0.14778723 -0.00305914 69 55 129
-0.13157892 0.17199120 -0.00373381 69 55 129
0.04369406 0.29020947 -0.00178861 69 56 130
-0.19506246 -0.13989192 -0.00460644 69 53 129
0.14811186 -0.21981823 -0.00085345 68 57 131
0.13229442 -0.15606926 -0.00106822 68 57 131
-0.09169514 0.28426096 -0.00319153 69 55 129
-0.13305286 -0.03614007 -0.00387418 69 55 129
-0.19555740 -0.06802820 -0.00456499 69 53 129
0.01996922 0.21118990 0.14837921 32 163 134
-0.05462265 0.15717593 0.07725729 44 115 142
-0.13172036 -0.16393889 -0.00397697 69 55 129
-0.09934708 -0.26782280 -0.00363868 69 55 129
-0.08883453 0.24298190 0.16263391 38 173 129
-0.05951411 0.08406343 -0.00312224 69 55 129
-0.02947273 -0.39316463 -0.00315171 69 55 129
0.04393535 0.08521617 -0.00182529 69 56 130
0.13967417 -0.03606822 -0.00094069 68 57 131
-0.10897435 -0.34002575 -0.00386138 69 55 129
-0.13979693 0.23604621 -0.00377896 69 55 129
-0.03545935 -0.25218880 -0.00293943 69 55 129
-0.17936856 0.13183548 -0.00428034 69 53 129
-0.19666812 -0.26007217 -0.00469547 69 53 129
-0.03645661 0.26001036 -0.00269598 69 56 130
0.09193932 -0.26003984 -0.00158987 69 56 130
0.07603084 -0.05190221 0.00431345 67 62 133
-0.19677052 -0.33989748 -0.00474943 69 53 129
-0.07960829 -0.14310086 -0.00342754 69 55 129
-0.04914807 0.23452899 0.12602749 31 148 140
-0.15576997 0.34830996 -0.00386691 69 55 129
-0.00424691 -0.08377837 0.03583428 57 86 140
-0.14741409 -0.24395674 -0.00412828 69 55 129
0.00407710 -0.31601626 -0.00259405 69 56 130
-0.14880711 -0.37218422 -0.00423967 69 53 129
0.06782055 -0.33204937 -0.00189090 69 56 130
0.03945819 -0.09545101 0.00348960 67 61 132
-0.03572955 -0.17404965 -0.00292607 69 55 129
0.07612740 0.04396204 -0.00159080 69 56 130
0.01201323 0.25200632 -0.00213005 69 56 130
0.05892407 0.21716312 0.11906455 33 144 141
0.13979886 -0.26792881 -0.00108059 68 57 131
-0.08422460 0.03598422 -0.00336715 69 55 129
-0.05988534 -0.35618919 -0.00322595 69 55 129
-0.02421033 0.00033868 0.01203433 65 68 135
0.19521344 -0.22007632 -0.00040605 68 57 131
0.15623425 -0.11597784 -0.00077453 68 57 131
0.04364154 0.18800014 -0.00180222 69 56 130
0.09961943 -0.01213449 -0.00137973 68 57 131
0.04391070 -0.17986608 -0.00203371 69 56 130
0.04463238 -0.22786777 -0.00210053 69 56 130
-0.06786332 0.32428831 -0.00304358 69 55 129
0.00335473 0.26135275 0.15972516 37 171 130
0.11574195 0.14809427 -0.00106007 68 57 131
0.08384062 0.27422515 -0.00127508 68 57 131
-0.04426000 0.18819307 -0.00281797 69 56 130
0.09203207 0.09191247 -0.00135891 68 57 131
0.14776674 0.06798287 -0.00082231 68 57 131
-0.17997098 0.03555133 -0.00434031 69 53 129
0.02778355 0.02798875 -0.00211488 69 56 130
0.17995873 0.18808857 -0.00036075 68 57 131
0.17987698 0.10808706 -0.00033149 68 57 131
0.00399321 -0.16460218 0.01021006 65 66 135
-0.12388665 -0.20429650 -0.00392257 69 55 129
0.03611221 -0.03594003 0.00187323 68 59 132
0.17981672 -0.04391067 -0.00056277 68 57 131
-0.09507223 -0.05200086 -0.00351384 69 55 129
-0.04390204 -0.05215134 0.00265680 68 59 132
-0.01270531 -0.35605705 -0.00278585 69 56 130
0.00427242 0.16411828 -0.00229396 69 56 130
0.08416971 0.18814555 -0.00137130 68 57 131
-0.14815030 0.06796512 -0.00398216 69 55 129
0.15603642 0.14794689 -0.00071147 68 57 131
-0.09190211 0.18011060 -0.00323083 69 55 129
0.00372532 0.08393534 -0.00229004 69 56 130
0.00395497 -0.24412806 -0.00251592 69 56 130
-0.12458758 0.31600893 -0.00356244 69 55 129
0.16413626 0.02795337 -0.00055388 68 57 131
0.19515744 -0.13196506 -0.00029908 68 57 131
-0.10751706 0.14004216 -0.00347999 69 55 129
0.10819156 0.22002292 -0.00109341 68 57 131
-0.19553795 -0.29993662 -0.00473238 69 53 129
0.15573078 0.22013459 -0.00056988 68 57 131
0.15619537 -0.07602441 -0.00085430 68 57 131
-0.10791595 -0.00377332 -0.00359348 69 55 129
-0.09998062 -0.10810877 -0.00356495 69 55 129
0.03601674 0.12396070 -0.00194978 69 56 130
-0.15597998 -0.00398135 -0.00410579 69 55 129
-0.04401708 -0.12451757 0.00467082 67 62 133
0.05691161 0.21412224 0.16111189 37 172 130
-0.05122182 0.24867341 0.17033887 44 177 126
-0.19571114 0.34862188 -0.00429325 69 53 129
-0.03615351 -0.21201703 -0.00287874 69 55 129
0.09198707 -0.16397682 -0.00147324 69 56 130
0.07643893 -0.09987587 0.00388210 67 61 132
-0.07532859 0.27610910 0.17624766 49 181 123
-0.05130737 0.20084324 0.10259242 37 132 142
0.01190281 -0.00402966 0.00571298 66 63 133
0.01195109 -0.05393833 0.04928228 52 96 141
-0.09222317 -0.30800501 -0.00364626 69 55 129
-0.17147955 -0.03637995 -0.00432547 69 53 129
0.06825727 -0.29214957 -0.00187801 69 56 130
-0.01922455 -0.28412011 -0.00284434 69 55 129
0.10837686 0.06008574 -0.00117235 68 57 131
-0.17933723 -0.10775527 -0.00442689 69 53 129
-0.04353080 0.02797629 -0.00285999 69 55 129
-0.04368522 0.11605115 -0.00284917 69 55 129
-0.12342373 0.26810497 -0.00357505 69 55 129
-0.05211288 0.29197681 -0.00282001 69 56 130
-0.16359138 0.10006404 -0.00417995 69 55 129
-0.09972370 0.06787299 -0.00341840 69 55 129
0.02747962 0.22015138 -0.00195969 69 56 130
-0.15532523 -0.06787357 -0.00411233 69 55 129
0.02802565 -0.13978331 0.00263405 68 59 132
0.02450484 -0.10441203 0.03416839 57 85 140
0.06175761 0.25055119 0.14238796 31 159 136
-0.00394438 0.28375974 -0.00233695 69 56 130
0.16418533 -0.18790083 -0.00074083 68 57 131
0.01545415 0.18238308 0.12922700 31 150 139
-0.08447345 0.10815386 -0.00323344 69 55 129
-0.02835934 0.14826337 -0.00265701 69 56 130
0.02825348 0.23644519 0.17294466 46 179 124
0.10029989 -0.12399529 -0.00139490 68 57 131
0.11637580 -0.18806826 -0.00128443 68 57 131
-0.14055631 0.13197039 -0.00384992 69 55 129
0.11602421 -0.23606294 -0.00134087 68 57 131
0.01564147 0.14919853 0.07868022 43 116 142
-0.06766095 0.26217297 0.14178336 31 159 136
-0.16449188 -0.17190145 -0.00433425 69 53 129
-0.07583631 -0.24366075 -0.00328753 69 55 129
0.16885853 -0.28860855 -0.00103857 68 57 131
-0.11535314 0.20404154 -0.00352307 69 55 129
-0.15579040 -0.13158643 -0.00420105 69 55 129
-0.16406365 0.16390768 -0.00410128 69 55 129
-0.05913863 0.16887330 0.11120336 35 138 141
-0.09974463 -0.17996469 -0.00365974 69 55 129
0.14801022 -0.00387212 -0.00079771 68 57 131
-0.16421764 -0.33224928 -0.00441180 69 53 129
-0.13246895 -0.27605999 -0.00402319 69 55 129
-0.05993650 -0.27592844 -0.00317758 69 55 129
0.17228636 -0.24399157 -0.00052140 68 57 131
-0.05163797 0.22780797 -0.00277653 69 56 130
-0.08078396 0.22184715 0.13848291 30 157 137
0.10759854 -0.06005676 -0.00126644 68 57 131
-0.10838636 -0.23606785 -0.00377072 69 55 129
0.03602448 -0.32375050 -0.00225039 69 56 130
-0.07610707 0.25185916 -0.00305215 69 55 129
0.16428141 -0.14779350 -0.00058587 68 57 131
0.04441136 0.25196615 -0.00176874 69 56 130
0.04119323 -0.06260809 0.02011413 62 74 137
-0.02829352 0.07610059 -0.00269808 69 56 130
0.09195735 0.12407260 -0.00135667 68 57 131
0.03621160 0.15609862 -0.00192140 69 56 130
-0.11672413 -0.37183532 -0.00392787 69 55 129
0.19519348 0.03571544 -0.00041520 68 57 131
0.04537437 0.18996562 0.13744463 30 156 137
-0.12343676 -0.06800817 -0.00378699 69 55 129
-0.19621804 -0.17190854 -0.00462162 69 53 129
-0.12409607 -0.13178591 -0.00383192 69 55 129
-0.06813370 -0.17243151 -0.00337675 69 55 129
-0.12349549 -0.30777746 -0.00393565 69 55 129
-0.06004701 -0.38788590 -0.00329744 69 55 129
-0.16661686 0.37720618 -0.00396329 69 55 129
-0.01908255 0.28072071 0.20662180 88 199 101
-0.18479550 0.30413926 -0.00436229 69 53 129
0.02038947 0.05715218 -0.00217122 69 56 130
-0.16041422 0.26235253 -0.00389923 69 55 129
-0.17981313 -0.36438963 -0.00458901 69 53 129
-0.05309258 0.20694871 0.13652958 30 155 138
0.01125416 0.27231845 0.18830267 63 188 115
-0.01956894 0.23572512 -0.00247269 69 56 130
-0.16465521 -0.26777330 -0.00434552 69 53 129
-0.02864324 0.26576856 0.17768690 50 182 122
-0.19608498 0.15581542 -0.00444593 69 53 129
0.14022137 -0.29990482 -0.00105513 68 57 131
-0.04275625 -0.02172710 0.00733703 66 64 134
-0.18078865 -0.23556934 -0.00451903 69 53 129
0.06058976 -0.25228217 -0.00193781 69 56 130
-0.05993489 0.05210508 -0.00295655 69 55 129
0.10773262 -0.28437650 -0.00145786 69 56 130
0.07240179 -0.02337253 0.00783801 66 64 134
0.09189569 0.24396202 -0.00127373 68 57 131
-0.10761515 0.23634405 -0.00339826 69 55 129
-0.19530612 0.10771301 -0.00446640 69 53 129
-0.01998833 -0.14819971 0.00576967 66 63 133
0.09214760 0.01993013 -0.00140088 68 57 131
0.06794780 0.10804719 -0.00162931 69 56 130
-0.07638367 -0.33206102 -0.00352260 69 55 129
-0.03616884 -0.33219489 -0.00305615 69 55 129
-0.13231824 -0.39576402 -0.00408859 69 55 129
0.08567512 0.05960160 0.02011027 62 74 137
-0.16368566 -0.39625028 -0.00444433 69 53 129
0.05979855 -0.07600734 0.00208176 68 59 132
-0.13199876 0.36235824 -0.00359707 69 55 129
0.04527276 0.19364940 0.11061131 35 138 141
0.01458638 0.14791198 0.10639706 36 135 142
-0.05972798 0.22869627 0.15556459 34 168 132
0.05082791 0.05094740 -0.00184683 69 56 130
-0.09966715 0.32396385 -0.00335939 69 55 129
-0.14871754 -0.19617641 -0.00418100 69 55 129
0.01950855 0.29925963 -0.00201748 69 56 130
-0.06792348 -0.10836320 0.01089907 65 66 135
-0.13990271 -0.34811291 -0.00418446 69 55 129
0.07603418 -0.22817300 -0.00172525 69 56 130
0.03444583 0.26176661 0.18527088 59 187 117
-0.01999995 0.18004151 -0.00250865 69 56 130
-0.09231697 -0.36415991 -0.00366247 69 55 129
0.00348637 0.02005810 -0.00240552 69 56 130
-0.16380939 0.32413107 -0.00399468 69 55 129
0.00194259 -0.37690639 -0.00271175 69 56 130
0.13213705 -0.12405432 -0.00104442 68 57 131
0.15619776 0.09195428 -0.00074762 68 57 131
0.17208678 0.05207278 -0.00067408 68 57 131
0.17185819 -0.01979383 -0.00055088 68 57 131
0.01984202 -0.11576863 0.00162742 68 59 132
0.13207817 -0.06809882 -0.00100680 68 57 131
0.01230346 -0.34000570 -0.00250726 69 56 130
-0.01973274 0.09996215 -0.00256985 69 56 130
0.02804214 -0.25199172 -0.00229799 69 56 130
0.01169958 -0.29185331 -0.00246609 69 56 130
0.06793709 -0.17199364 -0.00178817 69 56 130
0.12416418 -0.21204486 -0.00120759 68 57 131
0.10780363 0.17197905 -0.00116878 68 57 131
0.12408470 0.08413317 -0.00099489 68 57 131
0.04477373 -0.15729436 0.00931315 66 65 134
0.18002059 -0.10801432 -0.00037471 68 57 131
-0.01197607 -0.02014526 0.00303716 67 61 132
0.05169475 -0.20366293 -0.00197614 69 56 130
-0.15624808 0.04354142 -0.00410037 69 55 129
0.17017986 0.24057579 -0.00049538 68 57 131
0.04390300 -0.29988712 -0.00214253 69 56 130
-0.02773907 0.21207441 -0.00255593 69 56 130
-0.12433705 0.05184618 -0.00374075 69 55 129
0.01996879 0.19595200 -0.00207863 69 56 130
0.18800880 -0.19619754 -0.00053305 68 57 131
-0.11547039 0.29176009 -0.00350621 69 55 129
-0.06794476 0.19594097 -0.00302842 69 55 129
0.13212174 0.22809877 -0.00081098 68 57 131
0.08700781 -0.07404920 -0.00152155 69 56 130
-0.07629787 0.01239265 -0.00315411 69 55 129
-0.10025968 -0.21191323 -0.00361621 69 55 129
0.03621577 0.00466753 -0.00204289 69 56 130
-0.15513790 -0.22048983 -0.00426248 69 53 129
-0.10826170 -0.15620592 -0.00372175 69 55 129
-0.01176685 -0.17998485 -0.00262764 69 56 130
-0.10011673 0.25997931 -0.00337761 69 55 129
0.13974382 -0.18015479 -0.00106758 68 57 131
0.15567562 0.18002479 -0.00048058 68 57 131
-0.19609839 -0.03570367 -0.00450519 69 53 129
-0.02756405 0.29183018 -0.00251449 69 56 130
-0.03588077 -0.36415634 -0.00298125 69 55 129
0.09237425 -0.32395822 -0.00161589 69 56 130
-0.17302401 0.06824882 -0.00422894 69 55 129
-0.10011788 -0.02804534 -0.00355250 69 55 129
0.06047349 0.02020164 -0.00177421 69 56 130
0.00356391 0.22789580 -0.00226524 69 56 130
0.12389386 -0.01213247 -0.00107481 68 57 131
0.09253553 -0.03585199 0.01283913 64 69 136
0.02038877 -0.05129930 0.01185906 65 68 135
-0.04373240 0.32377163 -0.00271998 69 56 130
0.10716942 0.26559457 -0.00103044 68 57 131
0.14818923 -0.24412289 -0.00094366 68 57 131
-0.12442355 0.07593822 -0.00370955 69 55 129
-0.06543694 -0.04532579 0.01088727 65 66 135
0.10805164 0.19601682 -0.00111178 68 57 131
0.17981091 0.16409221 -0.00025406 68 57 131
0.01991931 -0.17982671 -0.00231000 69 56 130
-0.13170756 0.00401680 -0.00385532 69 55 129
0.15619889 0.11591100 -0.00072472 68 57 131
-0.10851339 0.02017462 -0.00362062 69 55 129
0.11591573 -0.25996554 -0.00132043 68 57 131
-0.01988829 -0.30800188 -0.00282749 69 55 129
-0.01257059 0.25995627 -0.00240610 69 56 130
-0.06802870 0.17206058 -0.00294616 69 55 129
-0.17277439 -0.08412884 -0.00435598 69 53 129
-0.03610383 0.05165402 -0.00275078 69 56 130
0.00418497 -0.26793545 -0.00255139 69 56 130
0.11588310 -0.03603459 -0.00117969 68 57 131
0.04433613 0.24527287 0.15766756 35 169 131
0.17211907 0.00396965 -0.00032234 68 57 131
0.06885795 0.08434536 -0.00163172 69 56 130
0.05157096 -0.11576958 0.00197885 68 59 132
0.02779511 -0.20397699 -0.00226050 69 56 130
-0.10048647 -0.13214432 -0.00356352 69 55 129
-0.15521137 0.02001963 -0.00410352 69 55 129
-0.10248806 -0.08477154 -0.00360319 69 55 129
0.06785668 0.25206941 -0.00151845 69 56 130
0.04891390 -0.35238451 -0.00213763 69 56 130
-0.05967491 -0.22005919 -0.00310390 69 55 129
-0.12359355 0.34009072 -0.00354575 69 55 129
-0.06770199 0.12423052 -0.00317813 69 55 129
0.06020273 0.17173202 -0.00165613 69 56 130
-0.19644329 -0.09210507 -0.00458163 69 53 129
0.08429535 0.21183056 -0.00138657 68 57 131
-0.17211525 -0.14803125 -0.00437052 69 53 129
-0.04432347 0.00482334 -0.00285577 69 55 129
0.02011820 0.27612591 -0.00201018 69 56 130
0.09261063 0.14797209 -0.00131827 68 57 131
-0.05250790 -0.19569132 -0.00311281 69 55 129
0.05750998 0.22797725 0.14000259 31 158 137
0.17215377 -0.22007491 -0.00069443 68 57 131
0.13217284 0.13195102 -0.00086114 68 57 131
-0.01954062 0.01978631 -0.00262519 69 56 130
0.02017171 0.09989417 -0.00215265 69 56 130
-0.01229087 -0.33202732 -0.00278250 69 56 130
-0.10828590 0.16411769 -0.00350938 69 55 129
0.10839576 -0.14802334 -0.00133000 68 57 131
-0.01223069 -0.22795218 -0.00269429 69 56 130
0.15594600 -0.05212689 -0.00084308 68 57 131
-0.07613065 0.06822544 -0.00316764 69 55 129
0.07934323 0.08154511 0.01939166 62 73 137
0.19512041 -0.24399543 -0.00056250 68 57 131
0.05218432 -0.05210285 0.00202907 68 59 132
-0.06023101 0.26818931 -0.00286899 69 55 129
0.14006762 -0.09993610 -0.00092270 68 57 131
0.01205009 0.14010385 -0.00220460 69 56 130
0.04210230 -0.09137318 0.02799543 60 80 139
-0.19593433 0.01933800 -0.00454958 69 53 129
-0.05374185 0.18866576 0.12300968 32 146 140
0.14797179 0.04394464 -0.00086648 68 57 131
-0.19550389 0.05215439 -0.00448191 69 53 129
0.05977084 0.20400505 -0.00166535 69 56 130
-0.07585070 -0.29226860 -0.00352039 69 55 129
-0.13144939 -0.22783643 -0.00398801 69 55 129
-0.13928199 -0.32405895 -0.00415280 69 55 129
0.13204134 0.16382006 -0.00088055 68 57 131
-0.08381912 0.30780768 -0.00304192 69 55 129
-0.04457553 0.16405191 -0.00275632 69 56 130
0.03728760 0.17240936 0.12368347 32 146 140
0.07599429 0.00380170 -0.00157950 69 56 130
-0.05294123 0.17964977 0.09235839 39 126 142
0.01204785 -0.02802346 0.00157887 68 59 132
0.10792539 0.10815774 -0.00116312 68 57 131
0.02008655 -0.22838698 -0.00235826 69 56 130
-0.05812314 0.14903700 0.09794556 38 130 142
0.00075978 -0.06251158 0.03062128 59 82 139
-0.04885081 0.25131318 0.14816459 31 162 135
0.09991274 -0.22017366 -0.00149662 69 56 130
-0.12410628 -0.25206044 -0.00392921 69 55 129
0.19589783 0.12375384 0.00010046 68 58 131
0.17193766 0.13218838 -0.00053345 68 57 131
0.03358700 -0.05521833 0.04374519 54 92 141
0.17186482 0.07617934 -0.00049244 68 57 131
-0.08430578 0.34003219 -0.00320209 69 55 129
0.10062545 -0.09970106 0.01277389 64 69 136
0.14773016 0.24395724 -0.00063068 68 57 131
0.17991710 -0.06796629 -0.00039790 68 57 131
-0.17989962 -0.28387436 -0.00453032 69 53 129
0.09182522 -0.29981968 -0.00161925 69 56 130
-0.04205700 -0.14573716 0.01062764 65 66 135
0.19500548 0.09199895 -0.00029741 68 57 131
-0.10744894 -0.29201970 -0.00378232 69 55 129
0.19548026 0.20376249 0.00012819 68 58 131
-0.10822902 0.11598593 -0.00350927 69 55 129
-0.09929058 0.09207329 -0.00341512 69 55 129
0.19482487 -0.02802411 -0.00039564 68 57 131
-0.18065815 -0.31576815 -0.00456221 69 53 129
0.08716884 0.06455407 -0.00111315 68 57 131
0.06007233 0.27607957 -0.00157059 69 56 130
0.10416164 -0.07615943 0.01276213 64 69 136
-0.18092100 0.17743607 -0.00419511 69 55 129
-0.08227640 0.26867950 0.15627803 34 168 132
0.00438249 -0.09831525 0.04915653 52 96 141
-0.19525629 -0.21985938 -0.00469100 69 53 129
-0.06045113 0.26794055 0.16344288 38 173 129
0.16391231 -0.26807269 -0.00093797 68 57 131
0.19756883 -0.05529802 0.00004673 68 58 131
0.05194147 -0.01994185 0.00471646 67 62 133
-0.02809444 -0.03572060 0.00205688 68 59 132
0.08067802 -0.12306923 0.00774019 66 64 134
0.17475197 0.21159317 0.00000477 68 58 131
0.05187262 0.23436117 0.17430373 47 180 124
0.02769243 0.25707796 0.16621290 40 174 128
-0.03357261 0.26492995 0.15759519 35 169 131
0.03606026 0.22002950 0.16323732 38 173 129
0.02623421 -0.16803084 0.01267442 65 68 135
0.19263604 0.01582490 0.00007021 68 58 131
-0.00325260 0.25965899 0.18302272 56 185 119
-0.00250681 0.00811380 0.01213851 65 68 135
-0.07816511 0.24028957 0.14471446 31 161 136
-0.00329314 -0.06805752 0.04900782 52 96 141
0.01460890 0.16418508 0.11724737 33 143 141
0.05684488 0.20546775 0.14052327 31 158 137
0.08383862 -0.13977154 -0.00161641 69 56 130
0.03475434 -0.09843089 0.04945974 52 97 141
-0.02414751 0.25494134 0.19478340 70 192 111
-0.14070804 0.27623770 -0.00377371 69 55 129
-0.18082479 0.09208957 -0.00432297 69 53 129
-0.17221487 0.01160677 -0.00426935 69 53 129
-0.12464207 0.14800632 -0.00367680 69 55 129
-0.11580876 -0.04379842 -0.00366472 69 55 129
-0.13228567 0.21229357 -0.00372369 69 55 129
-0.14013101 0.10838666 -0.00385306 69 55 129
-0.01266459 -0.25990045 -0.00272918 69 56 130
-0.06664430 -0.06600572 0.00754312 66 64 134
-0.17971693 -0.01277960 -0.00440342 69 53 129
-0.11657430 -0.09971461 -0.00376394 69 55 129
0.02804390 0.19642183 0.13937278 30 157 137
-0.14718559 -0.14802982 -0.00414612 69 55 129
0.05833274 0.25839546 0.15885326 36 170 131
0.11611182 0.24410036 -0.00099739 68 57 131
-0.14904383 0.36960608 -0.00376337 69 55 129
-0.18036404 0.33240446 -0.00413190 69 55 129
-0.06838058 0.24336697 0.16598985 40 174 128
-0.04375412 -0.23573093 -0.00310909 69 55 129
-0.17194717 -0.06002196 -0.00434167 69 53 129
-0.12469763 -0.01976807 -0.00379061 69 55 129
-0.14715572 0.33188775 -0.00377384 69 55 129
-0.19588374 -0.11572091 -0.00455369 69 53 129
0.04401115 0.22810145 -0.00184567 69 56 130
-0.15674503 -0.10789102 -0.00419842 69 55 129
-0.06747618 0.02843959 -0.00319044 69 55 129
-0.03575319 -0.29197571 -0.00295772 69 55 129
0.14775681 -0.13994093 -0.00094529 68 57 131
-0.14033937 0.30003539 -0.00375289 69 55 129
-0.10783204 0.04402982 -0.00360265 69 55 129
-0.01977392 -0.20402560 -0.00276076 69 56 130
0.15605399 -0.16404592 -0.00088104 68 57 131
-0.13242760 -0.18802831 -0.00398166 69 55 129
-0.09190927 0.15617490 -0.00329009 69 55 129
0.09192606 -0.09196837 -0.00148138 69 56 130
-0.07590730 0.09193061 -0.00312851 69 55 129
0.08385842 0.16390699 -0.00144637 69 56 130
-0.15624058 0.11677013 -0.00404247 69 55 129
-0.17924330 0.36415461 -0.00412991 69 55 129
0.05228875 0.13199387 -0.00176127 69 56 130
-0.15676320 0.14012125 -0.00404664 69 55 129
0.00409413 -0.13991708 0.00227272 68 59 132
-0.04454541 0.06807284 -0.00282325 69 56 130
0.07575458 -0.31577396 -0.00180969 69 56 130
-0.08406535 -0.22006898 -0.00354533 69 55 129
-0.01181915 0.15583186 -0.00246599 69 56 130
-0.05983649 0.10790671 -0.00299345 69 55 129
0.02804006 -0.01196252 0.00412928 67 61 132
0.13186222 0.00416532 -0.00098056 68 57 131
-0.05989883 0.24398792 -0.00297514 69 55 129
0.10823724 -0.17199528 -0.00133501 68 57 131
0.16385956 0.19615856 -0.00037939 68 57 131
0.06043264 -0.27594429 -0.00193613 69 56 130
0.10808400 0.00374203 -0.00121590 68 57 131
-0.19596218 -0.19598231 -0.00465812 69 53 129
0.10018133 0.04408471 -0.00131185 68 57 131
0.13193655 0.05206568 -0.00100094 68 57 131
-0.08392495 0.13196595 -0.00326408 69 55 129
-0.09175503 -0.16386840 -0.00350063 69 55 129
0.04421267 -0.26001015 -0.00212966 69 56 130
-0.06027964 0.30801862 -0.00283335 69 55 129
0.04408252 0.10792975 -0.00188060 69 56 130
0.05995144 -0.03597738 0.00312579 67 61 132
-0.05026830 0.21921818 0.11677533 33 142 141
0.12403809 0.20410837 -0.00094382 68 57 131
-0.13941090 -0.07611097 -0.00395173 69 55 129
0.09985168 -0.24397071 -0.00145659 69 56 130
0.07629454 -0.18797918 -0.00173152 69 56 130
0.06749703 -0.21207240 -0.00183053 69 56 130
-0.05170057 0.14006899 -0.00298272 69 55 129
-0.07621572 -0.37196851 -0.00353036 69 55 129
0.12384368 -0.27602059 -0.00126772 68 57 131
-0.02753974 0.12375227 -0.00264982 69 56 130
-0.10758794 -0.38789287 -0.00382238 69 55 129
0.08388303 -0.27600154 -0.00168647 69 56 130
0.17217539 -0.12407829 -0.00064062 68 57 131
0.17219631 -0.17192017 -0.00060911 68 57 131
-0.01448816 0.26241824 0.15976983 37 171 130
-0.14796981 0.15613391 -0.00395782 69 55 129
0.14778468 0.20412908 -0.00055679 68 57 131
-0.08371357 0.26802307 -0.00309065 69 55 129
0.01178624 0.03592534 -0.00226850 69 56 130
-0.06046774 -0.32396871 -0.00339639 69 55 129
-0.00400627 0.06015843 -0.00244348 69 56 130
0.03592401 0.26783055 -0.00189402 69 56 130
0.07581189 -0.15598099 -0.00168433 69 56 130
0.15616290 0.01197786 -0.00058198 68 57 131
-0.14738294 0.09210826 -0.00397603 69 55 129
0.17212906 -0.08400343 -0.00068425 68 57 131
0.00395702 0.10797089 -0.00233739 69 56 130
0.10025180 -0.19578889 -0.00140115 68 57 131
0.02784553 0.24385269 -0.00197041 69 56 130
-0.02796339 -0.13209875 0.00331099 67 61 132
-0.06757674 -0.25984809 -0.00322370 69 55 129
0.02822686 0.17200868 -0.00201933 69 56 130
0.03617074 0.20415200 -0.00191953 69 56 130
-0.13163266 0.25185081 -0.00369346 69 55 129
-0.06030287 0.21199884 -0.00284083 69 55 129
-0.09196180 -0.01224160 -0.00348240 69 55 129
-0.15671146 -0.35626107 -0.00431073 69 53 129
0.02000717 -0.30812988 -0.00243878 69 56 130
-0.18018548 -0.18023951 -0.00451300 69 53 129
0.12368587 -0.05199915 -0.00109675 68 57 131
0.16416289 -0.10001250 -0.00080933 68 57 131
-0.04373838 -0.26790830 -0.00308026 69 55 129
0.00427844 0.26798800 -0.00217049 69 56 130
0.18003821 -0.15596740 -0.00072902 68 57 131
-0.19564977 -0.37240246 -0.00478094 69 53 129
0.13181680 -0.25207806 -0.00114002 68 57 131
-0.14830384 -0.01997371 -0.00401302 69 55 129
0.13190372 -0.22817506 -0.00112391 68 57 131
0.10838635 -0.10821620 -0.00135623 68 57 131
0.05189200 -0.31585586 -0.00207343 69 56 130
0.10002979 -0.04395212 -0.00135851 68 57 131
0.14762667 -0.19601893 -0.00096832 68 57 131
0.01981989 0.01216516 -0.00221500 69 56 130
0.11565696 0.12408348 -0.00106349 68 57 131
-0.10731771 0.30801293 -0.00343262 69 55 129
-0.04410226 -0.38022882 -0.00309986 69 55 129
-0.02022491 -0.05153974 0.00123651 68 58 131
0.01179654 0.21198949 -0.00215444 69 56 130
0.00474371 -0.09757829 0.02940810 59 81 139
0.00338432 0.30650046 -0.00219872 69 56 130
0.11644217 -0.13218226 -0.00126787 68 57 131
-0.13989314 -0.26001921 -0.00408074 69 55 129
0.16413049 -0.03576403 -0.00058897 68 57 131
-0.00395595 -0.30004478 -0.00265750 69 56 130
-0.14709923 -0.05223780 -0.00407618 69 55 129
-0.10074845 -0.32439169 -0.00376206 69 55 129
-0.10821100 0.18789318 -0.00352622 69 55 129
0.14795405 -0.28403673 -0.00105437 68 57 131
-0.13263735 -0.11602992 -0.00390994 69 55 129
-0.17150868 -0.37995875 -0.00451731 69 53 129
-0.00488237 0.27062297 0.20080906 80 196 106
-0.03587336 0.09201637 -0.00268827 69 56 130
-0.16897750 0.27774993 -0.00409178 69 55 129
0.04391591 -0.13218631 0.00253627 68 59 132
-0.04411168 0.27586696 -0.00268182 69 56 130
-0.09193432 0.05179885 -0.00340518 69 55 129
0.13982002 0.01985384 -0.00092166 68 57 131
-0.07594870 0.29205751 -0.00296027 69 55 129
-0.14877595 -0.28391203 -0.00421412 69 55 129
-0.00387184 0.24379854 -0.00229425 69 56 130
-0.18846960 -0.15616736 -0.00459127 69 53 129
0.02576830 0.16155733 0.08696441 41 122 142
0.07575240 0.13206930 -0.00155110 69 56 130
-0.04328780 -0.34827149 -0.00319916 69 55 129
-0.03554698 0.30787727 -0.00260379 69 56 130
0.01217723 0.17975867 -0.00219649 69 56 130
-0.09279748 -0.19604248 -0.00356708 69 55 129
-0.02007047 0.27601320 -0.00244813 69 56 130
-0.02021209 -0.37193540 -0.00290965 69 55 129
-0.09195875 -0.28393686 -0.00361099 69 55 129
0.04432694 0.20429768 0.15402587 34 167 133
0.10052323 0.07580465 -0.00131847 68 57 131
-0.09146854 0.20422393 -0.00329094 69 55 129
0.05907043 0.23609300 0.15600985 34 168 132
-0.17225064 -0.25209734 -0.00441993 69 53 129
0.17992608 -0.26006055 -0.00060333 68 57 131
-0.18838505 -0.05222847 -0.00445894 69 53 129
-0.13252331 -0.36380285 -0.00409416 69 55 129
0.07687510 0.05418349 0.03620722 57 86 140
0.04447439 -0.06787546 0.00395479 67 61 132
-0.09194059 -0.25219217 -0.00361723 69 55 129
-0.11538572 -0.22021310 -0.00380688 69 55 129
-0.11654762 -0.17208791 -0.00381019 69 55 129
-0.15496305 0.17851454 -0.00395286 69 55 129
-0.01164264 0.21985154 -0.00241021 69 56 130
-0.17128114 -0.12413718 -0.00434501 69 53 129
-0.02843225 0.03627345 -0.00270977 69 56 130
-0.14003853 -0.21228637 -0.00410408 69 55 129
-0.08374277 -0.34758162 -0.00350207 69 55 129
-0.05734660 -0.02989629 0.01119956 65 66 135
0.09353409 -0.05966789 0.00852641 66 65 134
-0.17288005 0.14769468 -0.00418970 69 55 129
-0.02032604 -0.24415560 -0.00283327 69 55 129
0.19485798 0.17968735 -0.00033494 68 57 131
-0.12469048 0.22807352 -0.00362376 69 55 129
-0.17971312 -0.34075499 -0.00460647 69 53 129
-0.03679968 0.23613587 -0.00266725 69 56 130
-0.06624655 0.19841120 0.12918334 31 150 139
-0.09248304 0.24409635 -0.00327014 69 55 129
-0.16379884 -0.23608796 -0.00433996 69 53 129
-0.10838301 0.27600819 -0.00339223 69 55 129
0.02772986 0.00876486 0.01237404 65 68 135
-0.12321761 0.12381797 -0.00368119 69 55 129
0.00419644 -0.35614496 -0.00258380 69 56 130
0.18975757 0.05197084 0.00004160 68 58 131
-0.05076554 0.26618570 0.17714213 50 182 122
-0.10123745 -0.06799285 -0.00359324 69 55 129
0.05971806 -0.09990687 0.00207332 68 59 132
0.02848869 -0.05281704 0.02792655 60 80 139
-0.12374134 -0.33204126 -0.00396780 69 55 129
-0.11611913 -0.26826254 -0.00388371 69 55 129
-0.01998852 -0.11725497 0.00122110 68 58 131
0.02841187 -0.29201135 -0.00231380 69 56 130
0.08843490 0.07335363 0.03521015 57 85 140
-0.14781439 -0.17204051 -0.00416604 69 55 129
0.18441424 -0.28055692 -0.00049159 68 57 131
-0.17178676 -0.21969110 -0.00443726 69 53 129
-0.09192999 0.02024320 -0.00333438 69 55 129
0.04434933 0.02739473 -0.00195938 69 56 130
-0.10037722 0.21998164 -0.00342750 69 55 129
0.05033810 0.20393743 0.12409983 32 146 140
0.08432133 -0.03613781 -0.00150911 69 56 130
-0.01192122 0.30025098 -0.00236369 69 56 130
-0.02052332 0.06000528 -0.00261964 69 56 130
0.01967497 -0.27617541 -0.00238417 69 56 130
-0.08988710 0.22895814 0.15400597 34 167 133
-0.05193757 -0.25210392 -0.00319032 69 55 129
0.12376013 -0.29997241 -0.00126370 68 57 131
-0.07873076 -0.02465274 -0.00325459 69 55 129
-0.15290260 0.24773307 -0.00392225 69 55 129
-0.17162938 -0.29999965 -0.00445669 69 53 129
-0.05987536 0.01214654 -0.00300540 69 55 129
0.05988374 -0.18821780 -0.00187196 69 56 130
-0.05298773 -0.16617106 -0.00293367 69 55 129
-0.16350025 -0.31587783 -0.00439082 69 53 129
-0.05948623 -0.12383948 0.01002583 65 66 135
-0.05242320 -0.29167476 -0.00316355 69 55 129
-0.19572589 0.13219258 -0.00440024 69 53 129
0.01965902 0.12404324 -0.00215742 69 56 130
-0.11599595 -0.11605536 -0.00375160 69 55 129
-0.14067711 0.05228358 -0.00392610 69 55 129
0.13988182 0.09189291 -0.00089131 68 57 131
-0.01198857 0.07573508 -0.00251559 69 56 130
0.05187370 0.14828937 -0.00174763 69 56 130
0.08428759 0.22812590 -0.00136951 68 57 131
-0.16457768 -0.01969613 -0.00415729 69 55 129
-0.19614944 -0.24382655 -0.00472075 69 53 129
0.13979213 0.14783664 -0.00089154 68 57 131
0.12447663 -0.17196201 -0.00118949 68 57 131
-0.13918157 0.34780329 -0.00371944 69 55 129
-0.12345634 -0.14799714 -0.00386542 69 55 129
0.11639552 0.04421331 -0.00114146 68 57 131
-0.06784819 0.22811119 -0.00301275 69 55 129
0.03530374 -0.05211982 0.00238082 68 59 132
-0.16494852 -0.18809837 -0.00429948 69 53 129
-0.06776872 -0.30826446 -0.00344204 69 55 129
-0.19620831 0.03598140 -0.00454618 69 53 129
0.03624953 -0.33993492 -0.00223326 69 56 130
-0.09129237 -0.23602772 -0.00354295 69 55 129
-0.03580483 -0.19584824 -0.00288359 69 55 129
-0.02751296 0.19590892 -0.00256601 69 56 130
0.13230771 -0.08426310 -0.00101347 68 57 131
-0.16401231 0.08390909 -0.00411987 69 55 129
0.07606190 0.02780524 -0.00161322 69 56 130
0.12397639 0.06797755 -0.00100494 68 57 131
-0.00486215 -0.07634781 0.02150896 62 76 138
-0.17923802 0.05168348 -0.00432396 69 53 129
-0.11608779 -0.18820614 -0.00380697 69 55 129
-0.03640889 -0.31608269 -0.00308194 69 55 129
0.14829706 -0.01997814 -0.00074828 68 57 131
0.16439465 -0.20400596 -0.00061823 68 57 131
-0.10854828 -0.35611725 -0.00384746 69 55 129
0.09202105 0.26005301 -0.00127202 68 57 131
0.06000828 0.18782093 -0.00167478 69 56 130
0.00385395 -0.22772989 -0.00250112 69 56 130
0.05165790 -0.33193505 -0.00208454 69 56 130
-0.12407134 -0.08407619 -0.00381653 69 55 129
0.01347714 0.26040569 0.17293918 46 179 124
0.00379835 -0.18792850 -0.00252523 69 56 130
0.13985170 -0.05213758 -0.00098216 68 57 131
0.19500187 -0.11591724 -0.00024999 68 57 131
-0.06044199 -0.34015489 -0.00330966 69 55 129
0.10818575 0.02017024 -0.00121147 68 57 131
-0.15579958 -0.08389971 -0.00417315 69 55 129
-0.14788353 0.31587118 -0.00381911 69 55 129
0.02019115 0.15606837 -0.00211534 69 56 130
0.03626549 0.13997689 -0.00192146 69 56 130
0.06025923 -0.23627095 -0.00194434 69 56 130
0.01989650 -0.32413748 -0.00244393 69 56 130
0.07634706 -0.24416912 -0.00171788 69 56 130
-0.19608751 -0.32392311 -0.00477850 69 53 129
-0.09206203 0.00374522 -0.00344018 69 55 129
0.18007696 0.22802179 -0.00036790 68 57 131
-0.07591076 -0.27620989 -0.00346387 69 55 129
-0.02820162 -0.22803323 -0.00289301 69 55 129
-0.12472831 -0.29185319 -0.00395281 69 55 129
0.17981149 -0.13999775 -0.00066525 68 57 131
0.03638967 0.04415454 -0.00199803 69 56 130
-0.19633661 -0.35646030 -0.00476391 69 53 129
0.19509053 -0.14791360 -0.00046452 68 57 131
0.09177747 -0.10790692 -0.00148272 69 56 130
0.14810844 0.13211705 -0.00065370 68 57 131
-0.04367193 0.21205762 -0.00281050 69 56 130
0.14797141 0.16406208 -0.00057674 68 57 131
-0.00381156 0.18790206 -0.00235891 69 56 130
0.11596370 -0.07617234 -0.00122511 68 57 131
-0.10786584 -0.25230697 -0.00377028 69 55 129
0.17991775 0.14817138 -0.00034952 68 57 131
0.09203368 0.00401764 -0.00139669 68 57 131
-0.19577086 -0.27594098 -0.00471225 69 53 129
0.09222053 -0.17986251 -0.00153184 69 56 130
-0.16409922 0.30825374 -0.00403308 69 55 129
0.08381950 0.10815368 -0.00142509 69 56 130
-0.13295934 -0.37992916 -0.00408059 69 55 129
0.04443034 -0.24417078 -0.00210687 69 56 130
0.19564173 0.16368426 0.00011321 68 58 131
0.09988784 -0.02812655 -0.00136142 68 57 131
-0.13991286 -0.13176931 -0.00402929 69 55 129
0.17993912 0.02791742 -0.00029834 68 57 131
-0.00374307 0.14009461 -0.00237205 69 56 130
0.17198721 0.09214234 -0.00064529 68 57 131
0.19501646 -0.10015015 -0.00038301 68 57 131
-0.07568851 0.05230580 -0.00313626 69 55 129
-0.06010658 -0.23580624 -0.00316572 69 55 129
0.16406602 0.16386755 -0.00061277 68 57 131
-0.01157621 -0.16239740 0.01078305 65 66 135
-0.13921298 -0.30831248 -0.00412702 69 55 129
-0.02841408 0.16399027 -0.00263656 69 56 130
0.00389526 -0.11091164 0.00145836 68 59 132
-0.07608370 -0.18800154 -0.00331067 69 55 129
-0.17993967 0.11615120 -0.00429534 69 53 129
-0.07573271 -0.38824826 -0.00358267 69 55 129
-0.12421425 -0.34839177 -0.00397905 69 55 129
0.03008878 -0.10258333 0.01962366 62 73 137
0.04559993 -0.07608759 0.02788527 60 80 139
-0.05172288 0.24924098 0.13079336 31 151 139
-0.19558728 0.17191261 -0.00440285 69 53 129
-0.05453986 0.16406882 0.09179639 39 126 142
0.07596867 -0.08411121 0.00319048 67 61 132
0.10768279 0.09226453 -0.00115495 68 57 131
-0.17141189 0.34803608 -0.00403063 69 55 129
0.06016969 -0.15599772 -0.00187976 69 56 130
-0.19627683 0.36424541 -0.00426326 69 53 129
0.08400749 -0.01189618 -0.00150995 69 56 130
-0.06811732 -0.15682188 -0.00332812 69 55 129
-0.14864905 -0.03632183 -0.00407737 69 55 129
-0.02814923 -0.26765266 -0.00293474 69 55 129
-0.08214653 0.20452663 0.13145384 31 152 139
0.06055231 0.03578499 -0.00175131 69 56 130
0.06808484 -0.01183243 -0.00169575 69 56 130
0.13205022 -0.19598883 -0.00110135 68 57 131
0.10820636 -0.30016872 -0.00146736 69 56 130
0.07638873 -0.26004738 -0.00175299 69 56 130
0.05249029 -0.00430560 -0.00185619 69 56 130
-0.16364376 -0.20355900 -0.00431950 69 53 129
-0.00371595 -0.28401053 -0.00264922 69 56 130
-0.05051086 0.22788469 0.13997430 31 158 137
0.01920379 -0.10285142 0.04944537 52 97 141
-0.06847210 0.18011415 0.11635249 33 142 141
0.04512189 -0.08381038 0.01199526 65 68 135
-0.10771074 -0.30793455 -0.00376492 69 55 129
-0.06009318 -0.37164712 -0.00319854 69 55 129
0.13231230 -0.14007325 -0.00105787 68 57 131
0.06477141 -0.15276641 0.01265530 65 68 135
-0.06632340 0.25380066 0.15468960 34 167 133
0.02886380 0.15758862 0.11393051 34 140 141
-0.09183127 -0.37957087 -0.00363270 69 55 129
0.04364016 0.17220186 -0.00184572 69 56 130
0.03618934 -0.11606049 0.00180120 68 59 132
-0.16456687 -0.28348109 -0.00436804 69 53 129
-0.19635972 -0.01929033 -0.00454816 69 53 129
0.02870406 0.08665884 -0.00203631 69 56 130
-0.08442073 0.32400423 -0.00309811 69 55 129
-0.18032669 -0.39548564 -0.00459818 69 53 129
0.12360620 -0.10791714 -0.00112712 68 57 131
-0.05974287 0.06803296 -0.00303779 69 55 129
-0.04436592 -0.39598259 -0.00306498 69 55 129
-0.11648230 0.25205061 -0.00355954 69 55 129
0.01508690 0.14124571 0.09283949 39 126 142
-0.02801580 -0.01972323 0.00483169 67 62 133
-0.14854574 -0.38723722 -0.00428125 69 53 129
-0.06714719 0.21208905 0.13803850 30 156 137
0.01983480 0.25952163 0.18804085 63 188 115
0.09668112 -0.11418455 0.01324619 64 69 136
-0.07530653 0.22344351 0.15236554 33 165 133
-0.13211231 -0.05147681 -0.00388104 69 55 129
0.01207937 -0.04423895 0.00157153 68 59 132
-0.02149310 0.27406353 0.16605240 40 174 128
0.02005146 -0.15603857 0.00620502 66 63 133
0.06815019 -0.11605400 0.00384153 67 61 132
-0.02972734 0.00765563 -0.00283670 69 55 129
-0.04410071 -0.03615685 0.00456416 67 62 133
-0.12293515 0.18836707 -0.00361334 69 55 129
-0.01348805 -0.38503423 -0.00273750 69 56 130
-0.19554454 0.09204654 -0.00448606 69 53 129
0.08153982 -0.13777527 0.01276130 64 69 136
0.03877152 0.17908946 0.10764141 35 136 142
0.03741620 -0.16677260 -0.00215050 69 56 130
0.01220480 0.00912589 0.01206160 65 68 135
-0.02869109 -0.34791628 -0.00296512 69 55 129
-0.17918245 -0.26806423 -0.00451724 69 53 129
0.19440609 0.10824519 -0.00019616 68 57 131
-0.04002786 0.26109204 0.18547335 59 187 117
-0.17169069 0.29185811 -0.00409346 69 55 129
-0.05284023 0.18791637 0.10826200 35 136 142
-0.01188897 -0.00436621 0.00692647 66 63 133
0.07889193 0.05375507 0.00936575 66 65 134
-0.18017875 0.38031727 -0.00410825 69 55 129
0.19393116 -0.04185311 0.00004078 68 58 131
-0.02448761 0.27120885 0.19818017 76 194 108
-0.05154895 0.20386963 0.11605617 33 142 141
-0.05228047 -0.17993443 -0.00302572 69 55 129
-0.15542209 0.27554646 -0.00395223 69 55 129
0.08916544 0.07269840 0.00971948 66 65 134
0.04472537 0.18793423 0.12402184 32 146 140
-0.08982486 0.21249139 0.14240032 31 159 136
-0.09210314 -0.14832607 -0.00351600 69 55 129
-0.06579348 0.15941530 0.10420758 37 133 142
0.07603410 -0.06805030 0.00329412 67 61 132
0.18269257 0.12156601 0.00002639 68 58 131
0.15318087 -0.29679018 -0.00100563 68 57 131
-0.06938936 0.33745581 -0.00307086 69 55 129
-0.14727134 0.25971466 -0.00385601 69 55 129
0.08400287 0.07757506 -0.00144314 69 56 130
0.18325931 0.08283767 0.00001565 68 58 131
-0.18037897 0.16432177 -0.00421616 69 55 129
-0.00493076 -0.08377006 0.04891171 52 96 141
-0.05156401 0.23657051 0.16209733 37 172 130
0.04391344 0.00322162 0.01148825 65 68 135
0.19494197 -0.06804078 -0.00041475 68 57 131
0.09450850 -0.08365959 0.00831821 66 64 134
-0.09953800 0.33973747 -0.00334182 69 55 129
0.18284634 0.20079483 0.00004466 68 58 131
0.13208950 0.24407655 -0.00078264 68 57 131
0.09980613 -0.07591835 -0.00136617 68 57 131
-0.16437384 0.36447588 -0.00391776 69 55 129
0.04099178 -0.06231501 0.03590710 57 86 140
0.04390985 0.25721216 0.16246083 38 173 129
0.02826651 0.18152551 0.12972870 31 150 139
0.02356112 0.15272658 0.09856969 38 130 142
0.07271075 0.28041950 -0.00147408 69 56 130
-0.11604668 0.35490227 -0.00351667 69 55 129
0.03633314 0.05683610 -0.00204837 69 56 130
0.01694735 -0.36896500 -0.00254669 69 56 130
0.02140354 0.22808079 0.16636948 40 174 128
0.05592659 0.19956459 0.15239032 33 165 133
0.05547191 0.21830478 0.14783005 31 162 135
0.06446368 -0.34415206 -0.00198677 69 56 130
0.08603175 -0.05942814 -0.00154374 69 56 130
-0.10853796 0.08366047 -0.00357508 69 55 129
0.05183985 -0.14734580 0.00683055 66 63 133
-0.09927633 -0.34783849 -0.00365509 69 55 129
-0.01940155 0.13967991 -0.00254399 69 56 130
0.06109472 -0.01046040 0.00884578 66 65 134
0.05469272 0.22398758 0.16827750 42 176 127
0.03600464 -0.09858208 0.03589800 57 86 140
-0.10860042 0.10009340 -0.00354107 69 55 129
-0.03666430 -0.01137450 0.00976001 66 65 134
0.02980823 -0.10296091 0.00392209 67 61 132
0.03322244 0.29649061 -0.00207257 69 56 130
-0.08351376 0.23581024 -0.00323411 69 55 129
-0.04044193 0.26490816 0.17079759 44 177 126
-0.07625186 0.23372403 0.15880178 36 170 131
-0.18753307 0.06782506 -0.00439995 69 53 129
0.07804009 0.07830204 0.03952208 56 89 140
-0.18724714 -0.25206524 -0.00459592 69 53 129
-0.07641280 0.26310194 0.16531104 40 174 128
-0.09150890 -0.33219033 -0.00365077 69 55 129
-0.01158506 0.25519115 0.19053632 64 189 114
-0.03386915 0.27695388 0.15676992 35 169 131
-0.11606123 -0.02816841 -0.00368950 69 55 129
-0.12422337 0.30001161 -0.00360354 69 55 129
0.00316259 0.25994945 0.19319111 68 191 112
-0.16316199 -0.05185530 -0.00422232 69 55 129
0.05999965 0.22659096 0.12640238 31 148 140
-0.11564671 0.22026879 -0.00351071 69 55 129
-0.11560811 0.05999746 -0.00363085 69 55 129
-0.01181917 -0.13992570 0.00311804 67 61 132
-0.07259762 -0.09740549 0.01123177 65 66 135
0.08913418 -0.09967431 0.00716837 66 64 134
-0.00166623 -0.09046768 0.02239520 62 76 138
-0.18719451 0.00374837 -0.00446646 69 53 129
0.04460316 0.27588055 -0.00178841 69 56 130
0.04720515 -0.15963237 -0.00200790 69 56 130
0.05993650 0.09205856 -0.00170990 69 56 130
-0.18004581 -0.13202631 -0.00445722 69 53 129
-0.08592260 -0.03398605 -0.00334186 69 55 129
-0.06002831 0.22214507 0.14577660 31 161 135
0.12368745 0.18007478 -0.00096248 68 57 131
-0.18745515 -0.08451059 -0.00450686 69 53 129
-0.12804255 0.19895458 -0.00361969 69 55 129
0.01224344 0.23582189 -0.00211160 69 56 130
-0.07628894 0.18767846 -0.00306298 69 55 129
-0.13161391 0.28366360 -0.00368283 69 55 129
0.03599057 -0.23601191 -0.00217610 69 56 130
-0.17984855 -0.16412346 -0.00444706 69 53 129
-0.05197094 -0.33204406 -0.00318264 69 55 129
-0.04435185 0.08392905 -0.00279599 69 56 130
0.06109773 0.24115901 0.13542108 31 154 138
-0.09982627 0.12414277 -0.00343362 69 55 129
-0.18747523 0.14788000 -0.00434491 69 53 129
0.11651687 0.09994684 -0.00112044 68 57 131
-0.10837799 0.33178130 -0.00342303 69 55 129
-0.15644719 0.05971057 -0.00408050 69 55 129
0.15616886 0.05985842 -0.00077301 68 57 131
-0.02840126 0.24426182 -0.00259079 69 56 130
0.08447587 -0.02751087 0.01145607 65 68 135
0.10760823 -0.26817605 -0.00143792 69 56 130
0.08423883 -0.21986678 -0.00161041 69 56 130
0.08901363 0.06171214 0.03588553 57 86 140
0.14828876 -0.25992507 -0.00091875 68 57 131
-0.14045632 -0.29209119 -0.00416062 69 55 129
-0.08390336 -0.31617203 -0.00358182 69 55 129
0.03597463 -0.14798628 0.00495661 67 62 133
-0.05184080 0.03614936 -0.00296233 69 55 129
-0.05943913 0.17993380 -0.00302713 69 55 129
-0.05622279 0.14951873 0.08588726 41 121 142
-0.15572663 -0.15594637 -0.00421563 69 55 129
-0.14822252 -0.26815313 -0.00417105 69 55 129
-0.02828118 0.22801481 -0.00259263 69 56 130
0.04080959 -0.06252991 0.04919398 52 96 141
0.05980191 -0.12414062 0.00342480 67 61 132
0.02851308 0.18806408 -0.00200471 69 56 130
-0.05129712 0.25181183 -0.00285333 69 55 129
-0.04344147 0.13189405 -0.00286237 69 55 129
-0.00422909 -0.21201135 -0.00261356 69 56 130
0.12386756 0.21994030 -0.00091941 68 57 131
0.14766689 -0.15602408 -0.00096577 68 57 131
0.15622553 0.07592911 -0.00083071 68 57 131
0.14781627 -0.08405267 -0.00093625 68 57 131
0.00341856 -0.06000320 0.04403422 54 93 141
-0.01191646 0.17171913 -0.00245916 69 56 130
-0.15596147 -0.25179991 -0.00426802 69 53 129
-0.03611451 0.17994121 -0.00274959 69 56 130
0.14788724 -0.12402163 -0.00088558 68 57 131
0.03625428 -0.21985593 -0.00216546 69 56 130
-0.11637957 0.00414518 -0.00368487 69 55 129
0.14023970 0.21983054 -0.00084755 68 57 131
-0.07589091 0.11593816 -0.00316234 69 55 129
0.05219457 0.01209553 -0.00183634 69 56 130
-0.13173814 0.33185235 -0.00362913 69 55 129
-0.18772675 -0.33238965 -0.00464980 69 53 129
0.03565462 0.09998299 -0.00198396 69 56 130
0.18015862 0.04377405 -0.00031817 68 57 131
0.04211058 -0.09127230 0.04409786 54 93 141
0.00406524 0.05185691 -0.00236144 69 56 130
0.09986343 -0.30819586 -0.00157664 69 56 130
0.08345489 -0.33132184 -0.00171188 69 56 130
0.14791733 -0.06794766 -0.00087035 68 57 131
-0.05006199 0.23607185 0.14813052 31 162 135
-0.10787579 -0.19634253 -0.00371612 69 55 129
-0.02789310 -0.15516949 0.01050947 65 66 135
-0.17216389 -0.35572985 -0.00447421 69 53 129
-0.10050844 0.29173049 -0.00326814 69 55 129
0.02803585 -0.18804379 -0.00224273 69 56 130
-0.07636993 0.20383938 -0.00316527 69 55 129
-0.08363409 -0.17207901 -0.00338900 69 55 129
0.07566276 -0.03599693 0.00613140 66 63 133
0.01172166 0.28405359 -0.00210850 69 56 130
-0.05971026 0.16405168 -0.00304390 69 55 129
0.05225190 -0.29191062 -0.00203355 69 56 130
-0.06801870 0.00396342 -0.00323062 69 55 129
-0.17248556 -0.32391810 -0.00450134 69 53 129
0.00410879 -0.33187971 -0.00259641 69 56 130
-0.18053104 0.01960309 -0.00434674 69 53 129
-0.14754069 0.00388458 -0.00400065 69 55 129
-0.09988710 0.10802048 -0.00342070 69 55 129
-0.02745870 -0.18788798 -0.00280689 69 56 130
0.07603376 0.17997502 -0.00151689 69 56 130
0.17989907 -0.02805784 -0.00041339 68 57 131
-0.08380552 -0.26781106 -0.00342626 69 55 129
0.02774322 -0.26794365 -0.00231644 69 56 130
0.09203479 0.17202948 -0.00135879 68 57 131
0.06775706 -0.06009656 0.00226901 68 59 132
-0.07296732 0.17104474 0.11084519 35 138 141
-0.17156501 0.02767058 -0.00428813 69 53 129
0.10791069 -0.21188551 -0.00142096 69 56 130
-0.06770275 0.28402168 -0.00307511 69 55 129
-0.18052688 -0.06769442 -0.00435846 69 53 129
0.13987298 -0.21178879 -0.00102878 68 57 131
-0.06535071 0.27042708 0.17695634 50 182 122
-0.12374566 0.03614848 -0.00372931 69 55 129
-0.07628662 0.16405849 -0.00319919 69 55 129
-0.05192811 0.12405974 -0.00290345 69 55 129
0.02035814 -0.34820175 -0.00243934 69 56 130
0.05229158 0.11597010 -0.00178658 69 56 130
-0.14762373 -0.33195928 -0.00425298 69 53 129
0.02011484 0.04383835 -0.00216772 69 56 130
-0.18780883 -0.09999590 -0.00449978 69 53 129
0.09989157 0.21208322 -0.00122064 68 57 131
-0.17977098 -0.04432582 -0.00437937 69 53 129
0.16407850 0.22801863 -0.00044687 68 57 131
0.16405176 -0.25198573 -0.00087645 68 57 131
0.05207872 0.21993381 -0.00172773 69 56 130
0.01213923 -0.14794108 0.00391481 67 61 132
-0.12382816 -0.38804018 -0.00401731 69 55 129
-0.04436866 -0.20400205 -0.00297924 69 55 129
0.10015821 0.23600230 -0.00115578 68 57 131
0.16383579 0.04410473 -0.00043478 68 57 131
-0.05201387 0.20406696 -0.00281808 69 56 130
-0.04395943 -0.28393883 -0.00301200 69 55 129
-0.03547363 0.10804820 -0.00273018 69 56 130
0.02794256 -0.02790268 0.00178359 68 59 132
0.14788692 -0.17209612 -0.00094064 68 57 131
