ply
format ascii 1.0
element vertex 1024
property float x
property float y
property float z
property uchar red
property uchar green
property uchar blue
end_header
-0.19612508 -0.34654167 -0.01037604 70 48 126
0.17130265 0.24938963 -0.02786417 72 33 115
0.17790660 -0.16458099 -0.01925724 72 41 121
-0.19836482 0.07054461 -0.02449596 72 36 117
-0.02467552 0.19611341 0.24101262 144 215 67
0.03719877 0.04079768 0.03020760 59 82 139
-0.06721968 -0.15734981 -0.02065140 72 40 120
-0.03344345 0.22749192 -0.02965410 72 31 112
0.11584466 0.23672950 0.14266770 31 160 136
0.01122231 -0.31394309 -0.01691540 71 44 122
0.18018658 0.09193146 -0.02037762 72 40 120
-0.07248167 0.15763299 0.10332029 37 133 142
0.05241296 -0.10471245 0.05873659 49 103 142
-0.18977527 -0.07459536 -0.02199163 72 38 119
-0.19559845 -0.21062009 -0.02201162 72 38 119
0.14050665 -0.03610313 -0.02006395 72 40 120
-0.08236060 0.00590925 -0.01525138 71 45 123
0.07013487 0.15483126 -0.02113894 72 40 120
0.05288386 -0.20050953 -0.01592746 71 44 122
-0.08677159 0.12255099 -0.02328111 72 37 118
-0.09895244 -0.27571982 -0.02076901 72 40 120
0.04604898 0.16451892 0.09165274 40 125 142
0.01559226 0.28524393 0.13997355 31 158 137
0.06101421 0.28419459 -0.03007332 72 31 112
0.04469071 -0.04379610 -0.01752432 71 42 122
-0.01472814 0.12602124 0.03544949 57 86 140
0.04866858 0.23291248 0.20503268 86 198 103
0.10094661 -0.11780868 -0.01519070 71 45 123
-0.08114310 0.22628671 0.15537290 34 168 132
0.10874658 0.04449943 -0.01812842 71 42 122
0.01228128 -0.12515065 -0.01791401 71 42 122
-0.02671230 -0.23081657 -0.02503087 72 36 117
-0.11114490 -0.35662761 -0.01935246 72 41 121
0.15301472 0.16825117 -0.02824032 72 32 113
0.01491794 -0.03371312 0.06195524 48 105 142
-0.16221136 -0.00073322 -0.02421364 72 36 117
0.13226709 -0.22748956 -0.01669806 71 44 122
-0.01816580 0.20930478 0.09173351 40 125 142
0.02014114 0.09130510 -0.02357444 72 37 118
0.10829452 0.20173521 0.07622605 44 114 142
0.07316080 -0.27381057 -0.01111290 70 48 126
-0.12185428 -0.20521994 -0.01472010 71 45 123
-0.04167028 0.06321913 0.00307571 67 61 132
0.09986788 0.21993172 -0.02798141 72 33 115
-0.01201392 0.00071562 -0.01930796 72 41 121
-0.00099090 0.20753734 0.16181883 37 172 130
-0.01218782 0.15304232 -0.02990389 72 31 112
0.17761819 0.02065724 -0.02305098 72 37 118
0.16984506 -0.09754816 -0.02534537 72 36 117
0.05184661 0.12370690 0.03869980 56 89 140
-0.13160762 0.07323164 -0.02448229 72 36 117
-0.16770333 -0.28685516 -0.01315162 71 46 124
0.01064354 0.24878156 0.25970048 178 221 45
0.08567156 0.26047093 0.09101154 40 125 142
0.11638325 0.10756779 -0.02346319 72 37 118
0.03563628 0.22638786 -0.02170417 72 38 119
0.05835664 0.21401176 0.12943198 31 150 139
-0.00830007 0.28225860 0.19549896 72 193 110
-0.19852228 -0.15089661 -0.02829845 72 32 113
0.08679548 0.07319159 0.03111529 58 83 139
0.06160915 0.01137093 -0.01554403 71 44 122
0.10795617 -0.17494416 -0.01641647 71 44 122
-0.00972167 0.27876008 -0.03547260 72 26 108
-0.00351193 -0.17884137 -0.01557807 71 44 122
0.11560204 0.27345413 -0.03043171 72 31 112
0.01885299 -0.25949550 -0.01688321 71 44 122
0.09801112 0.02011430 0.03452318 57 85 140
-0.03139180 0.17452624 0.04787982 53 95 141
-0.04863727 0.11970031 0.07427683 44 113 142
-0.14847663 -0.15830988 -0.01774387 71 42 122
-0.03626060 0.10778780 -0.02473821 72 36 117
-0.06103613 0.19004987 0.20509072 86 198 103
0.05985761 -0.14855704 -0.01540161 71 45 123
-0.11438618 -0.03400917 -0.01842279 72 41 121
0.09118290 -0.06812169 -0.02018828 72 40 120
-0.07658072 -0.22826871 -0.01535404 71 45 123
0.00857502 -0.08770779 0.03993630 55 90 140
0.01529472 0.19274612 0.20705481 88 199 101
-0.05062122 -0.03268103 -0.01762601 71 42 122
0.07081342 0.08720598 -0.02417564 72 36 117
0.14328308 0.23467696 0.10179008 37 132 142
0.05449452 -0.09956780 -0.01291547 71 46 124
-0.05199590 0.19590847 0.12442102 32 147 140
-0.15576790 -0.23834139 -0.01363820 71 46 124
0.05837097 -0.04533144 0.04769738 53 95 141
-0.08509660 0.07122718 -0.01771367 71 42 122
0.10781774 -0.00396109 -0.02205410 72 38 119
-0.13238700 -0.31606087 -0.01862534 72 41 121
0.02695916 0.24436311 0.15601219 34 168 132
0.08882773 -0.22468799 -0.02898920 72 32 113
-0.16861331 0.10415706 -0.02343705 72 37 118
0.14082880 -0.13995652 -0.01869721 72 41 121
0.03000150 0.13402534 -0.02376897 72 37 118
-0.19564335 -0.02876076 -0.02753170 72 33 115
0.14828026 0.21235888 -0.02691835 72 33 115
0.14937192 0.05923207 -0.02321327 72 37 118
-0.12510890 0.02162325 -0.02556667 72 35 116
-0.16357289 0.04426831 -0.02239299 72 38 119
-0.02712175 -0.14108305 -0.01111275 70 48 126
-0.05890453 -0.26341105 -0.03224808 72 29 111
-0.15427868 -0.35403261 -0.01535155 71 45 123
0.10804555 0.17239939 -0.02645484 72 35 116
0.17950238 -0.05125344 -0.02459896 72 36 117
0.08101019 0.16768599 0.06897927 46 110 142
0.13156496 -0.08456820 -0.01503871 71 45 123
-0.10794522 -0.16404103 -0.01964051 72 41 121
-0.19546878 -0.25062969 -0.01341336 71 46 124
0.15196699 0.12774506 -0.02350226 72 37 118
-0.04179248 0.02267522 0.00085598 68 58 131
0.08143690 0.19117230 0.10471191 36 134 142
0.06555693 0.19850691 -0.02598388 72 35 116
-0.03639464 0.17211393 0.09249878 39 126 142
0.01198652 -0.22002536 -0.02109891 72 40 120
-0.05266152 -0.19606242 -0.01882454 72 41 121
-0.15774685 -0.04094084 -0.02407333 72 36 117
-0.19531211 0.02061091 -0.01999105 72 40 120
-0.00506606 0.22790477 0.22791895 122 209 81
0.02882949 0.26420850 0.21843740 105 205 91
-0.12539034 0.11502462 -0.02344144 72 37 118
-0.01766825 -0.27241662 -0.01062799 70 48 126
0.02625421 -0.00487047 -0.01548518 71 45 123
0.14698215 -0.18804301 -0.01907477 72 41 121
0.06804433 0.24395460 -0.02948328 72 32 113
0.14514424 0.00178810 -0.02532185 72 36 117
-0.02103240 0.22005337 0.13259725 31 152 139
0.08184132 0.24323779 0.12402375 32 146 140
0.00219801 0.22710350 -0.04083920 72 22 104
0.05170231 -0.24394375 -0.01202732 71 47 125
0.02837575 0.26788336 -0.03049355 72 31 112
0.00184772 -0.03269296 -0.01835820 72 41 121
-0.19554928 -0.30854136 -0.02107772 72 40 120
-0.02066087 0.19042790 0.20569034 86 198 103
-0.19005609 -0.11019335 -0.02710408 72 33 115
0.02251524 0.21221797 0.13503006 31 154 138
0.03556986 0.16928998 -0.02649852 72 35 116
0.04809144 0.13491517 0.07211965 45 113 142
0.02803259 -0.16399686 -0.01433215 71 45 123
0.07559727 -0.02800104 -0.02069232 72 40 120
-0.12538193 -0.25263759 -0.02219924 72 38 119
0.17688055 0.19279857 -0.02307004 72 37 118
0.01959715 0.22862913 0.18680093 61 188 116
0.08468352 0.12381572 -0.02584438 72 35 116
0.10401899 -0.25302854 -0.01673198 71 44 122
-0.16433592 -0.18743882 -0.02657047 72 35 116
0.00165992 0.21374162 0.25796238 176 221 47
0.08170512 0.22683950 0.09108005 40 125 142
0.01759251 0.26689896 0.17931356 53 183 121
0.13155867 0.24402002 -0.02656063 72 35 116
0.17992611 -0.12857690 -0.01865702 72 41 121
-0.00443755 0.11652363 -0.02439720 72 36 117
-0.03254116 0.10233461 0.04967714 52 97 141
0.17921469 -0.01207643 -0.02154484 72 38 119
-0.08447514 -0.18806782 -0.01931430 72 41 121
0.08864650 0.06539431 -0.00285278 69 55 129
0.09181182 0.01898745 -0.00534256 69 53 129
0.04146083 -0.28275958 -0.01851635 72 41 121
0.03528029 -0.06405357 0.06016234 49 104 142
0.14808580 0.09202898 -0.02298851 72 37 118
0.02644219 0.22178026 0.22616252 119 209 83
0.10788311 -0.04089908 -0.01881310 72 41 121
0.11642697 0.13952725 -0.02355174 72 37 118
-0.13113476 -0.28387970 -0.01976087 72 41 121
0.16135238 -0.21729796 -0.02331007 72 37 118
-0.03679919 0.14816597 0.06785715 46 110 142
0.11619128 0.07618875 -0.02118710 72 38 119
0.17704001 0.14824674 -0.02583353 72 35 116
0.09182826 -0.14813939 -0.01813373 71 42 122
-0.05258033 0.07900863 -0.02165026 72 38 119
0.07601988 -0.17514434 -0.01629104 71 44 122
-0.16991484 -0.32724026 -0.01527718 71 45 123
-0.01296571 0.08683079 -0.02534766 72 36 117
0.07866415 0.23309463 0.15303862 33 166 133
-0.19619438 -0.17978752 -0.01784173 71 42 122
-0.19739622 0.11241853 -0.01763079 71 42 122
0.06534453 0.15020582 0.04983962 52 97 141
-0.02023387 -0.20395979 -0.01268900 71 47 125
0.11993217 -0.20145157 -0.00746742 70 51 127
-0.10295512 -0.30941936 -0.02048914 72 40 120
-0.03913723 -0.16938867 -0.01603107 71 44 122
0.17841740 0.05187322 -0.02197137 72 38 119
0.11664085 0.22915585 0.08926179 40 124 142
0.13656406 0.03017967 -0.02340769 72 37 118
-0.00929290 -0.25434804 -0.03262821 72 28 110
0.15634185 -0.06789725 -0.01667576 71 44 122
0.05388611 0.18812810 0.11485012 34 141 141
-0.04282909 0.21768264 0.10720973 36 135 142
0.09777183 0.04125912 0.01258782 65 68 135
-0.01408796 0.25335273 -0.02178325 72 38 119
0.04370353 0.01276575 0.03436934 57 85 140
0.04926446 0.06630738 0.03672557 56 88 140
0.01234579 -0.10583017 0.06198421 48 105 142
0.02796737 0.26057893 0.13190262 31 152 139
0.05984589 -0.06819082 -0.01853878 72 41 121
-0.10834493 0.09192099 -0.02439121 72 36 117
-0.10608536 -0.22911333 -0.01315512 71 46 124
-0.13205260 -0.01194357 -0.02221574 72 38 119
0.08419167 0.26788253 -0.02714554 72 33 115
0.05182742 0.10837702 -0.02531799 72 36 117
0.12375639 0.19600913 -0.02816327 72 33 115
-0.05442520 0.00481182 -0.02029993 72 40 120
-0.16386633 0.07616517 -0.02317137 72 37 118
-0.09223168 -0.01831752 -0.02666418 72 35 116
-0.13185625 -0.18009113 -0.02490229 72 36 117
-0.07568461 0.21192434 0.13206331 31 152 139
0.01588428 0.29217035 -0.02564012 72 35 116
0.01243838 -0.07839987 0.06637675 46 109 142
0.05126802 -0.01362917 -0.02319027 72 37 118
0.06718697 -0.12327333 -0.02277863 72 37 118
0.17408693 0.22051908 -0.02554632 72 35 116
0.05236622 0.23446625 0.14594020 31 161 135
-0.05316693 -0.24148734 -0.01439100 71 45 123
0.00469420 -0.28296655 -0.02087914 72 40 120
0.04082343 0.20756903 0.20852554 90 200 100
-0.06800769 0.10028440 -0.02079693 72 40 120
-0.18782499 -0.00474990 -0.02036638 72 40 120
-0.02328161 0.18447243 0.07381877 44 113 142
0.04277427 -0.12324206 -0.01405820 71 46 124
-0.17232846 -0.22017471 -0.02827059 72 32 113
-0.07361099 0.18193220 0.12178822 32 146 140
0.14697412 -0.10767835 -0.01881683 72 41 121
-0.04395943 0.20238996 0.22006331 108 205 90
-0.02810146 -0.01925742 -0.02211047 72 38 119
0.09190831 -0.19534592 -0.01849347 72 41 121
-0.05743604 0.14081347 0.08604428 41 121 142
-0.08463349 -0.25476518 -0.02475055 72 36 117
-0.02464288 0.13207673 -0.02145796 72 38 119
0.13279210 -0.16384962 -0.01400286 71 46 124
0.10045037 -0.09176642 -0.01724874 71 42 122
-0.13187192 -0.22799496 -0.02116572 72 40 120
0.07753810 0.03507024 0.03184469 58 83 139
0.08074863 0.21937424 0.11546462 34 141 141
0.01280351 0.15607452 -0.02759442 72 33 115
-0.02842125 0.14792755 0.04405821 54 93 141
-0.10824979 0.00390178 -0.01973687 72 41 121
0.02795475 -0.19754229 -0.01718406 71 42 122
-0.13268009 -0.34435788 -0.02376452 72 37 118
0.13158058 -0.06006769 -0.02047404 72 40 120
0.11577859 -0.14008459 -0.01813755 71 42 122
-0.14454783 -0.26341191 -0.01023106 70 48 126
0.05938112 0.13203222 -0.02831393 72 32 113
0.08992407 0.19445126 -0.02231269 72 38 119
0.03960149 -0.03704084 0.06366142 47 107 142
0.09203061 0.10013561 -0.02177579 72 38 119
-0.00434395 0.20465693 0.21885748 108 205 90
-0.00354637 -0.14814451 -0.01460607 71 45 123
0.17892283 0.11635192 -0.02475577 72 36 117
0.06847907 -0.22018880 -0.01561080 71 44 122
0.03300800 0.24906577 0.19512455 72 193 110
0.03967392 -0.22285265 -0.01579297 71 44 122
0.09250743 0.24401255 -0.02845815 72 32 113
-0.15557598 -0.30759582 -0.01793565 71 42 122
0.02327405 0.02777124 0.01488779 64 70 136
0.05195515 -0.17211647 -0.01422314 71 45 123
0.12372374 0.22030562 -0.03253047 72 28 110
0.07629760 -0.09195277 -0.02041810 72 40 120
-0.14090705 -0.36881506 -0.02915195 72 32 113
0.08517066 0.20394590 0.08405934 42 120 142
0.04405566 0.08557608 -0.02327037 72 37 118
-0.13064612 0.04478688 -0.02965373 72 31 112
0.02300105 0.26818064 0.15576206 34 168 132
0.17928241 -0.07479592 -0.01969776 72 41 121
-0.18755028 0.04528369 -0.02364736 72 37 118
0.00005889 0.21051683 0.12631607 31 148 140
-0.17210640 -0.16581397 -0.01988704 72 40 120
-0.14716277 0.09326007 -0.02433068 72 36 117
0.12270088 -0.10642484 -0.01898044 72 41 121
-0.14841875 0.02910972 -0.03284869 72 28 110
0.01166321 0.22797444 0.16403931 39 173 129
-0.19731084 -0.05207035 -0.02270997 72 37 118
0.07723343 -0.24299347 -0.01927835 72 41 121
-0.04341596 -0.22005390 -0.01156832 71 47 125
0.08445178 -0.00386510 -0.01888415 72 41 121
0.04305619 0.19345583 -0.02324064 72 37 118
-0.04117162 0.19469580 0.09461532 39 128 142
0.09188557 0.14803593 -0.02514689 72 36 117
0.14038222 0.14775579 -0.02274903 72 37 118
0.02210229 0.24621190 -0.02538021 72 36 117
0.11590523 0.02016410 -0.02059844 72 40 120
-0.04405105 0.21802688 0.13248086 31 152 139
-0.17229688 0.02006862 -0.02114085 72 40 120
0.05992289 0.15414220 0.07658739 44 115 142
0.12414820 -0.01978245 -0.01904856 72 41 121
0.06728023 0.17318782 0.09163631 40 125 142
0.15712260 -0.15615119 -0.01498449 71 45 123
-0.02743100 0.20609258 -0.03487040 72 27 109
-0.05053294 0.17804658 0.11030333 35 138 141
0.07789847 0.22288881 -0.03324956 72 28 110
0.02888642 -0.02760901 -0.01531560 71 45 123
0.05195985 0.25993073 -0.03042646 72 31 112
0.15641989 -0.02014009 -0.01775091 71 42 122
0.10869910 -0.22922535 -0.01916638 72 41 121
-0.03316227 -0.25234312 -0.02241899 72 38 119
0.09341103 0.24847697 0.14550038 31 161 135
-0.09047679 -0.20966844 -0.01679522 71 44 122
0.17249100 -0.18637706 -0.01854849 72 41 121
0.01168359 0.26613382 0.20405979 84 197 104
-0.10962232 -0.33078527 -0.02161907 72 38 119
-0.10837524 -0.18762241 -0.01741572 71 42 122
0.08583726 0.17059804 -0.02522166 72 36 117
-0.05838865 0.12037446 -0.02028094 72 40 120
0.07616655 -0.05168971 -0.01978023 72 40 120
0.03953475 -0.03312963 0.04175088 55 91 141
0.02618855 0.24394229 0.22803693 122 209 81
0.16414040 0.07577847 -0.02212197 72 38 119
0.02042454 0.20668969 0.18959928 64 189 114
-0.08952856 -0.15185097 -0.01876494 72 41 121
-0.18751200 0.08971814 -0.02462585 72 36 117
0.02811968 -0.13994089 -0.01424672 71 45 123
-0.03398190 0.12408272 0.05225352 51 99 141
0.17847060 0.17103459 -0.02441103 72 36 117
0.14808884 0.19084105 -0.02347578 72 37 118
0.03635169 0.28952396 -0.03252809 72 28 110
-0.06760518 -0.01242601 -0.02002581 72 40 120
0.01789322 0.11281034 -0.02375270 72 37 118
0.13952076 0.26407439 -0.02547109 72 35 116
-0.17147800 -0.02008172 -0.02169914 72 38 119
0.08951885 0.18299955 0.08193077 42 119 142
-0.04655248 -0.14877230 -0.01615687 71 44 122
0.00601194 0.23144883 0.24594094 155 217 60
-0.17174253 -0.25225079 -0.01031716 70 48 126
0.04522681 0.14837815 -0.02773615 72 33 115
-0.19045666 -0.32965130 -0.02193518 72 38 119
0.09211894 0.07578687 -0.02104309 72 40 120
0.16333553 0.03625520 -0.02150909 72 38 119
-0.18670215 -0.22815248 -0.01418772 71 45 123
0.09115164 0.05286796 0.03413948 57 85 140
-0.02277030 0.16547576 0.06459108 47 107 142
0.15440948 0.23789854 -0.02363173 72 37 118
-0.03957763 0.04447211 -0.00581364 70 52 128
-0.10779326 0.07110673 -0.02536330 72 36 117
-0.17292178 -0.34750459 -0.00887631 70 50 126
0.07890066 0.24502282 0.10354178 37 133 142
-0.07477349 0.20722340 0.16016190 37 171 130
0.16347092 -0.11853787 -0.02607244 72 35 116
0.16485569 0.00414748 -0.01979405 72 40 120
0.13293973 0.17177631 -0.02598572 72 35 116
0.04230464 0.00490757 -0.02355070 72 37 118
-0.17994779 -0.04148450 -0.02342662 72 37 118
0.04631556 0.11786284 0.05736402 49 102 142
0.00400607 0.26158100 -0.02575159 72 35 116
0.00271430 -0.20311487 -0.01504654 71 45 123
0.13210618 0.12418590 -0.02244424 72 38 119
-0.00794721 0.21183123 0.24035268 144 215 67
0.05047798 -0.26363036 -0.01607423 71 44 122
0.15976584 0.10921429 -0.02365563 72 37 118
0.14066283 -0.20933861 -0.01852996 72 41 121
0.04547482 -0.06001055 -0.00572307 70 52 128
0.00356195 -0.01183675 -0.02091932 72 40 120
-0.14664342 0.06002977 -0.02573592 72 35 116
-0.14767559 -0.33182159 -0.01944873 72 41 121
-0.01959927 -0.16539694 -0.01549514 71 45 123
-0.06168603 -0.17846331 -0.01622310 71 44 122
-0.00457783 -0.23608147 -0.02640681 72 35 116
0.05635551 0.16889784 -0.02349406 72 37 118
0.06928644 0.20306057 0.11739317 33 143 141
0.12290536 0.21058224 0.08572642 41 121 142
-0.07016882 -0.20399781 -0.01653740 71 44 122
0.05149399 0.21123035 -0.02294386 72 37 118
0.01550993 0.24471870 0.17735726 50 182 122
0.01147307 0.13216643 -0.02785587 72 33 115
0.12322307 -0.18674861 -0.01894999 72 41 121
-0.03565794 -0.18786624 -0.01843173 72 41 121
-0.05189490 0.16164279 0.09499606 39 128 142
0.13202216 0.05224500 -0.02086488 72 40 120
-0.07355485 -0.27448571 -0.02813650 72 33 115
-0.14810292 -0.02130736 -0.02517364 72 36 117
-0.01180598 -0.21953350 -0.01900131 72 41 121
-0.05757853 0.06906483 -0.00652602 70 52 128
0.08343994 -0.13011605 -0.01633016 71 44 122
-0.11695353 -0.29729027 -0.02331364 72 37 118
-0.08353156 0.08894219 -0.02357849 72 37 118
0.03739557 0.22454712 0.14067706 31 158 137
0.07368141 -0.19729747 -0.01517404 71 45 123
0.10783786 -0.06027108 -0.01744322 71 42 122
0.06812259 0.22985044 0.12930503 31 150 139
-0.01066944 -0.27492127 -0.02762179 72 33 115
0.10244425 0.23827755 0.12996981 31 151 139
-0.09040546 -0.29667962 -0.01576856 71 44 122
0.09293110 0.05388779 -0.01817521 71 42 122
-0.14946456 0.01286982 -0.02431835 72 36 117
-0.10805541 -0.25993168 -0.02289091 72 37 118
-0.03553061 0.08551852 -0.02349972 72 37 118
0.00844872 0.23103593 0.26410103 189 223 38
0.00846529 0.28021017 0.18854323 63 188 115
0.17928267 -0.10975689 -0.01559596 71 44 122
0.13087726 -0.12471943 -0.01740547 71 42 122
0.03086422 -0.24649745 -0.01251844 71 47 125
-0.18003550 0.06788263 -0.02181659 72 38 119
0.16709358 -0.13975449 -0.02515798 72 36 117
-0.18127108 -0.19290788 -0.02299722 72 37 118
0.00418387 0.09990799 -0.02293552 72 37 118
-0.09995040 0.10798141 -0.02489190 72 36 117
0.17183395 -0.03582328 -0.01897174 72 41 121
0.07532957 0.10830177 -0.02642383 72 35 116
0.08392690 -0.10824476 -0.01842978 72 41 121
0.10840774 -0.15622292 -0.01463304 71 45 123
0.10857898 0.23592465 -0.02664747 72 35 116
0.01210414 0.21194384 0.22065409 110 206 88
0.06012320 0.22798193 -0.02651596 72 35 116
0.08374161 0.25928411 0.11592749 33 142 141
0.01346517 -0.18502657 -0.01582724 71 44 122
0.03590976 -0.18029079 -0.01416668 71 45 123
0.04400728 0.24408075 -0.02731754 72 33 115
0.09194838 -0.02011346 -0.02018826 72 40 120
0.13975465 0.07620014 -0.02187238 72 38 119
0.10680244 0.19482939 -0.03365356 72 28 110
-0.10677609 -0.02927931 -0.03385427 72 28 110
0.10790639 0.09198263 -0.02179123 72 38 119
-0.03999907 0.20012969 0.11152485 35 138 141
-0.06546769 0.01745610 -0.01438388 71 45 123
0.12430103 0.00449056 -0.02131143 72 38 119
0.04749250 -0.05959062 0.04801950 52 96 141
0.04474337 0.17917603 0.10164439 37 131 142
0.13039631 0.09311985 -0.02447905 72 36 117
0.02048595 -0.27768528 -0.01463003 71 45 123
0.10017867 0.25987130 -0.02605901 72 35 116
0.08381321 -0.25963986 -0.01243166 71 47 125
0.10768406 0.12273708 -0.02658730 72 35 116
0.14827491 -0.05198253 -0.01857511 72 41 121
-0.06747629 -0.25203627 -0.02118099 72 38 119
0.03970210 0.24664153 0.14352190 31 160 136
0.03450578 0.22679932 0.19621658 72 193 110
0.01608592 0.22973247 -0.03015953 72 31 112
-0.01766008 0.22667286 0.24030964 144 215 67
0.11585729 -0.07603411 -0.01834687 71 42 122
-0.03881365 0.16385083 0.07576951 44 114 142
-0.00400109 0.24474557 -0.03348127 72 28 110
0.15658244 0.01993162 -0.02095245 72 40 120
-0.04403608 -0.01236813 -0.01884985 72 41 121
-0.08935376 0.21764359 0.14165430 31 159 136
-0.11570416 -0.27572733 -0.02624809 72 35 116
-0.12451024 -0.15805152 -0.01991979 72 40 120
0.14025998 0.10778506 -0.02207663 72 38 119
0.07650756 -0.15607193 -0.01468889 71 45 123
-0.09177486 -0.17212863 -0.01793044 71 42 122
-0.01091823 -0.13268980 -0.01061197 70 48 126
0.16390024 0.20436442 -0.02566791 72 35 116
-0.14865470 -0.28405854 -0.02113130 72 40 120
-0.03997236 0.19435498 0.20498042 86 198 103
0.01216660 -0.15577002 -0.01303450 71 46 124
0.06718335 -0.25966400 -0.01959424 72 41 121
0.09262958 -0.04925514 -0.02514851 72 36 117
0.02273301 0.22523035 0.15082245 32 164 134
0.05895897 0.13233718 0.05203201 51 98 141
0.06007190 -0.03585491 -0.02057713 72 40 120
-0.14100505 -0.24508841 -0.02102233 72 40 120
0.14092174 0.22802618 -0.02823818 72 32 113
0.09203178 -0.16496854 -0.01425692 71 45 123
0.04408728 0.12381174 -0.02531145 72 36 117
0.04431092 -0.15594298 -0.01534087 71 45 123
0.09507204 0.03794987 -0.00999777 70 48 126
0.15742449 0.14843588 -0.02483704 72 36 117
0.05051440 -0.10802633 0.00150173 68 59 132
0.08099775 0.21204695 0.09977300 38 130 142
0.04615640 0.20251510 0.12575367 31 148 140
-0.18036744 -0.30149209 -0.01740501 71 42 122
0.15627177 0.25636995 -0.02359557 72 37 118
0.06822554 -0.01211608 -0.02146526 72 38 119
-0.02951895 0.11603562 0.03784536 56 88 140
0.00505435 0.21176836 0.17721447 50 182 122
0.11545862 0.25145745 -0.02821751 72 33 115
0.12466543 -0.04392224 -0.01880980 72 41 121
-0.11523445 -0.01175799 -0.01948957 72 41 121
0.12230840 0.15551299 -0.02376487 72 37 118
0.15866962 -0.08498425 -0.02804773 72 33 115
0.02830535 -0.10398147 0.05633736 50 101 142
0.17999913 0.06992029 -0.02410282 72 36 117
0.10019641 0.01199857 -0.01839129 72 41 121
-0.07115449 0.22621520 0.14161251 31 159 136
0.01579690 -0.05063128 0.06215110 48 106 142
0.16333631 0.18110585 -0.02441660 72 36 117
-0.01908470 0.20533295 0.22799528 122 209 81
0.07623172 0.07618741 -0.01258014 71 47 125
0.01135334 0.00294381 -0.01853440 72 41 121
0.09960620 0.05854782 0.02069695 62 74 137
-0.01153630 -0.01985797 -0.01912656 72 41 121
0.08413289 -0.21195190 -0.01908780 72 41 121
0.09844990 0.03660750 0.03138860 58 83 139
-0.09935787 -0.24359490 -0.01832355 71 42 122
0.09392785 -0.23963234 -0.01697071 71 42 122
0.15632652 -0.17271444 -0.01730420 71 42 122
-0.02963445 0.21756077 0.11746471 33 143 141
-0.05996771 0.21158510 0.12647215 31 148 140
0.03619230 0.10026111 -0.02264722 72 37 118
-0.14097653 -0.29997024 -0.02023068 72 40 120
0.02491441 0.25535554 0.16874655 42 176 127
0.12432849 -0.21326883 -0.01987819 72 40 120
-0.14812855 -0.17918275 -0.02215073 72 38 119
-0.13219452 0.00445805 -0.02095660 72 40 120
-0.03563060 0.13177609 0.06834558 46 110 142
-0.13180542 0.09994861 -0.02451741 72 36 117
-0.02081835 0.11601793 -0.02365546 72 37 118
0.14756274 -0.12405918 -0.01920508 72 41 121
-0.04335231 0.14852051 0.08277196 42 119 142
0.16091354 -0.19637823 -0.02413344 72 36 117
0.03092552 0.23710029 0.21406507 99 203 95
0.02277831 -0.23297787 -0.01638375 71 44 122
0.06966385 0.18039213 0.10741412 35 136 142
0.16693328 0.13376720 -0.02476659 72 36 117
0.00537246 0.27779371 -0.02978302 72 31 112
-0.01960182 -0.25399595 -0.01378877 71 46 124
-0.02248764 0.23246361 -0.04034883 72 22 104
-0.18808340 -0.16388299 -0.01987650 72 40 120
0.04632167 -0.13994704 -0.01644958 71 44 122
0.10796599 -0.01999034 -0.01954160 72 41 121
-0.13125652 -0.26791054 -0.01846397 72 41 121
0.10698704 -0.20054674 -0.01706184 71 42 122
0.11656170 0.06018107 -0.02109264 72 40 120
-0.14679235 -0.22221065 -0.02170637 72 38 119
-0.17205003 -0.23339088 -0.01791628 71 42 122
0.03513646 -0.26767135 -0.01427782 71 45 123
0.11580229 -0.12409434 -0.02260347 72 37 118
-0.03908013 0.11065970 0.06524651 47 108 142
-0.05208633 0.10009690 -0.02141451 72 38 119
-0.01974141 -0.18816279 -0.01821331 71 42 122
-0.07455153 0.19616944 0.13057086 31 151 139
0.06988950 0.17711610 -0.02260816 72 37 118
0.00790787 -0.09029616 0.05556463 50 101 142
0.13959102 -0.01192105 -0.01962952 72 41 121
0.06008516 -0.05236009 -0.01895957 72 41 121
0.07617737 -0.07615515 -0.01941413 72 41 121
0.16390112 0.09226171 -0.02344892 72 37 118
0.05417050 -0.09000583 0.05324401 51 99 141
0.05994673 -0.08394124 -0.01949348 72 41 121
0.04423215 -0.02793280 -0.01889630 72 41 121
-0.03592375 -0.20404457 -0.01404941 71 46 124
-0.05910183 -0.21990959 -0.01276035 71 46 124
-0.00351954 0.14017503 -0.02739191 72 33 115
0.04410665 0.27606213 -0.03029837 72 31 112
0.16395155 -0.05196887 -0.01890301 72 41 121
0.00354742 -0.26005444 -0.02571820 72 35 116
0.07651878 0.01269674 -0.01100986 70 48 126
-0.16453229 0.06054802 -0.02330748 72 37 118
0.15612167 -0.03620999 -0.02027482 72 40 120
0.07908744 0.14106826 -0.01963619 72 41 121
0.02804328 0.14937139 -0.02524654 72 36 117
-0.14833644 0.07613304 -0.02341883 72 37 118
-0.06730103 0.17065790 0.10999610 35 137 142
-0.06707796 0.08373050 -0.01884847 72 41 121
0.01430634 0.22911783 0.23305885 132 212 75
0.06797653 -0.10807868 -0.01983550 72 40 120
-0.14746799 0.04336907 -0.02688145 72 33 115
0.14765006 -0.09213220 -0.01992291 72 40 120
0.17906319 0.03584833 -0.02080856 72 40 120
-0.02743207 0.19388425 0.08766226 41 123 142
-0.07573350 -0.17240161 -0.01793744 71 42 122
0.10758252 0.21672118 0.08875307 41 123 142
0.14804548 0.04408096 -0.02097676 72 40 120
0.16508234 0.05929064 -0.02027995 72 40 120
-0.03560809 -0.03300428 -0.02079462 72 40 120
-0.01110471 0.26831704 -0.02042029 72 40 120
-0.02807224 -0.00437206 -0.01851588 72 41 121
0.06854583 0.25904691 -0.02696878 72 33 115
0.01196388 -0.13999772 -0.01443959 71 45 123
0.11565490 -0.09204666 -0.01697150 71 42 122
-0.08424863 0.10759873 -0.02434613 72 36 117
0.09717384 0.02119903 0.00870740 66 65 134
0.13511121 -0.19119464 -0.01026544 70 48 126
-0.09209447 -0.00446724 -0.02063257 72 40 120
0.08270604 0.23868278 0.13960402 30 157 137
0.09261411 -0.17970526 -0.01749497 71 42 122
0.04678615 0.14929362 0.08220021 42 119 142
0.02653864 0.20622878 0.20335491 84 197 104
-0.02010464 0.10007181 -0.02477787 72 36 117
-0.10780934 -0.21058555 -0.01448525 71 45 123
0.01990864 0.25391242 0.20684280 88 199 101
0.13109532 0.22611496 0.09160976 40 125 142
0.00421246 0.21467620 0.14981280 32 164 134
0.01938692 -0.29204929 -0.01843767 72 41 121
-0.19514924 -0.19640441 -0.01758744 71 42 122
0.16128175 -0.10871121 -0.01488715 71 45 123
0.11552145 -0.24217245 -0.02177824 72 38 119
-0.19899702 -0.12143445 -0.02330562 72 37 118
-0.11807591 -0.34506673 -0.02636343 72 35 116
-0.05097027 0.01777544 -0.01146882 71 47 125
-0.00780958 -0.26289335 -0.01613855 71 44 122
0.08095282 -0.22799395 -0.01561038 71 44 122
0.00118434 0.18867503 0.20780367 90 200 100
0.05977853 -0.18791798 -0.01282611 71 46 124
-0.11706835 -0.31193802 -0.02316955 72 37 118
-0.02915036 -0.21952294 -0.01450633 71 45 123
0.08354710 0.01958641 0.03314132 58 84 140
0.10787984 0.15611880 -0.02524750 72 36 117
-0.10201617 -0.28996751 -0.02130915 72 38 119
-0.03921652 -0.23333442 -0.01552802 71 45 123
0.02892839 -0.21194017 -0.01694774 71 42 122
0.10036889 -0.13203594 -0.01311211 71 46 124
0.06972568 0.12318093 -0.02367297 72 37 118
-0.09737983 -0.19705175 -0.01703026 71 42 122
0.03576752 0.21378849 0.12967338 31 150 139
-0.02103813 -0.24401528 -0.02545941 72 35 116
0.12537274 0.26157975 -0.02566039 72 35 116
0.07509738 0.28248727 -0.03223640 72 29 111
0.13692054 0.20361270 -0.02702298 72 33 115
0.08371473 0.21175441 -0.02634182 72 35 116
-0.00360121 -0.16460539 -0.01541859 71 45 123
0.06212157 -0.13648285 -0.02436998 72 36 117
-0.02599198 0.19977753 0.21687120 103 204 92
0.04760683 0.17668055 -0.01542243 71 45 123
0.07800129 0.16499899 -0.01481198 71 45 123
-0.12370633 -0.33187729 -0.02081935 72 40 120
-0.17648971 -0.20677444 -0.02993362 72 31 112
-0.10171357 0.01642074 -0.01931781 72 41 121
-0.02788386 0.13239004 0.04259833 54 92 141
-0.05247146 -0.25158462 -0.02802653 72 33 115
-0.16100913 -0.33810917 -0.01634475 71 44 122
0.12384325 0.03593847 -0.02156047 72 38 119
0.05490231 0.22669627 0.13444759 31 154 138
0.12451570 -0.15295833 -0.01724188 71 42 122
-0.03246218 0.16300303 0.03990015 55 90 140
0.00481777 -0.30145499 -0.01767986 71 42 122
0.09201606 0.05144461 0.00483228 67 62 133
0.06859311 0.21213654 -0.02477007 72 36 117
-0.09216996 -0.22779518 -0.01353407 71 46 124
0.01776255 -0.07586104 0.05372627 50 100 142
-0.18310785 -0.21483225 -0.01745075 71 42 122
-0.05967208 0.18576209 0.11879701 33 144 141
0.17735057 0.00475362 -0.02586316 72 35 116
0.09150704 -0.03589746 -0.02145837 72 38 119
0.06701913 -0.23532984 -0.01378589 71 46 124
-0.14869969 -0.00385268 -0.02327215 72 37 118
0.05317284 -0.08710064 -0.00695725 70 52 128
0.16525048 0.16473034 -0.02274127 72 37 118
0.05236138 -0.22767797 -0.01296222 71 46 124
-0.15484144 0.10516053 -0.02218138 72 38 119
0.07231822 0.15961777 0.06182085 48 105 142
0.03750095 0.21971883 0.21422966 99 203 95
0.02928402 -0.12620515 -0.01397645 71 46 124
0.02286375 0.27019629 0.14035133 31 158 137
-0.15383160 -0.24965528 -0.00601318 70 52 128
0.09945657 0.18266249 -0.02316978 72 37 118
0.17271292 0.23572750 -0.02696705 72 33 115
-0.01797083 -0.14969592 -0.01662322 71 44 122
0.07967877 0.18435554 0.09296343 39 126 142
0.05891339 0.14114594 0.06655395 46 109 142
-0.18199989 0.10566317 -0.02115894 72 40 120
0.02984324 0.00825805 -0.01431718 71 45 123
0.07772070 0.18907553 -0.01953235 72 41 121
0.11990756 -0.16769256 -0.01611412 71 44 122
-0.04526374 0.12248319 -0.02319728 72 37 118
0.10144721 0.02863236 -0.01756707 71 42 122
0.10143608 0.20469499 0.08757771 41 123 142
0.00686602 0.22846811 0.17670552 50 182 122
-0.03134738 0.14046022 0.05815500 49 103 142
-0.03468743 0.17746171 0.07570035 44 114 142
0.01182843 -0.17170013 -0.01433178 71 45 123
0.08801225 0.20050073 0.09680665 38 129 142
0.15437621 -0.13842849 -0.02080744 72 40 120
0.04606839 -0.03093292 0.05335340 51 99 141
0.06288052 0.08133648 -0.01500833 71 45 123
-0.19340897 -0.20215991 -0.03224626 72 29 111
0.11416292 0.18245964 -0.03296210 72 28 110
-0.06456125 0.15129463 0.09448618 39 127 142
-0.19693470 0.03568271 -0.02299301 72 37 118
0.01742080 -0.01495922 -0.01630402 71 44 122
0.06340280 0.24012838 0.13652743 30 155 138
-0.06782214 0.00416761 -0.01998280 72 40 120
-0.05127068 -0.16408585 -0.01805942 71 42 122
-0.14640178 -0.35708278 -0.02572742 72 35 116
0.07561025 -0.14087547 -0.01765481 71 42 122
-0.03872095 0.15847945 0.09039658 40 125 142
-0.12360957 0.08387559 -0.02495183 72 36 117
0.10303238 0.27226844 -0.02211234 72 38 119
-0.12974477 -0.18975136 -0.01599607 71 44 122
0.07771483 0.25823268 0.10249924 37 132 142
-0.18550523 -0.01755973 -0.02299942 72 37 118
0.03209841 0.25773323 0.14416122 31 161 136
0.14297503 0.16087905 -0.02377020 72 37 118
-0.05109190 0.20140475 0.20620400 88 199 101
0.03481014 0.11458714 -0.02363971 72 37 118
0.02873800 0.05024496 0.03380326 58 84 140
-0.11776385 -0.23369767 -0.01719640 71 42 122
0.00006092 0.08698513 -0.02359223 72 37 118
-0.15613174 0.02804623 -0.02226444 72 38 119
0.07315620 0.16648851 0.08199263 42 119 142
0.00035864 0.27255091 0.19712853 74 193 109
-0.17186069 0.09156942 -0.02496348 72 36 117
0.09403339 0.23183665 -0.02396598 72 37 118
-0.04515968 0.18869306 0.11556581 34 141 141
-0.05122151 0.13182025 0.07828044 43 116 142
0.04744267 -0.04414873 0.05467936 50 100 142
-0.02260742 -0.03253380 -0.02101196 72 40 120
0.06403795 -0.16085376 -0.01616535 71 44 122
0.13182108 -0.17859615 -0.01358191 71 46 124
0.14489765 0.24673373 -0.02418520 72 36 117
-0.09121983 -0.26622379 -0.02497787 72 36 117
0.17962995 0.13140281 -0.02427469 72 36 117
0.04677802 0.16022021 -0.03259540 72 28 110
0.04761562 -0.11168591 -0.01048480 70 48 126
0.03571669 -0.01216748 -0.02023101 72 40 120
-0.10707733 -0.02156240 -0.01862296 72 41 121
0.09907609 0.13218471 -0.02660897 72 35 116
-0.13478619 0.05684812 -0.03045425 72 31 112
-0.09753092 0.08519956 -0.02356523 72 37 118
-0.18062383 -0.18028869 -0.02134207 72 38 119
-0.01972715 0.14523377 -0.02326004 72 37 118
-0.03714257 0.04139334 0.00628927 66 63 133
0.13530801 0.06457940 -0.02440067 72 36 117
-0.19646823 0.00449186 -0.02110219 72 40 120
-0.13201798 -0.35603899 -0.02861764 72 32 113
0.13338442 -0.10050876 -0.01562120 71 44 122
0.05297101 -0.21301125 -0.01392459 71 46 124
0.10458830 0.24251448 0.14296193 31 160 136
0.10821886 -0.10787106 -0.01807939 71 42 122
0.13828449 0.01183772 -0.02189699 72 38 119
-0.19612147 -0.23647350 -0.01286091 71 46 124
0.09645991 0.06540795 0.03350521 58 84 140
0.10059329 -0.07612842 -0.01757840 71 42 122
0.00163605 0.15281235 -0.03247602 72 28 110
-0.04141025 0.17973410 0.10175397 37 132 142
-0.02372116 0.21992883 -0.03974439 72 22 104
-0.00519213 -0.19133168 -0.01570816 71 44 122
-0.03724211 0.19758759 0.22957745 124 210 80
-0.14013438 0.02115259 -0.02600602 72 35 116
-0.07133186 -0.23968221 -0.01608244 71 44 122
0.00455326 0.20794703 0.24717401 157 217 59
0.01937223 0.26006490 -0.02650020 72 35 116
0.14024942 -0.07621250 -0.01861959 72 41 121
-0.13047172 -0.21416898 -0.01664680 71 44 122
0.11590674 0.21201821 -0.02721499 72 33 115
0.01665422 0.23920649 0.16139893 37 172 130
0.10060933 0.11276720 -0.02369217 72 37 118
0.07677764 0.21135423 0.12426963 32 147 140
0.08133890 0.20415559 0.11406985 34 140 141
0.03682713 -0.23553520 -0.01385110 71 46 124
-0.02914145 -0.15729780 -0.01631305 71 44 122
0.03937871 0.21386142 -0.02106073 72 40 120
0.00913089 0.21492900 0.16218016 37 172 130
0.15679184 0.22072770 -0.03063000 72 31 112
-0.02898766 -0.17768706 -0.01562486 71 44 122
0.08843509 0.21716443 0.08695871 41 122 142
0.06030099 0.16343707 0.08490258 41 121 142
-0.15817060 -0.02837342 -0.02315096 72 37 118
0.03837314 0.24498343 0.20558105 86 198 103
-0.17995374 -0.24358945 -0.01378145 71 46 124
0.08324452 0.25226051 -0.02883163 72 32 113
0.14992604 -0.20391288 -0.02472913 72 36 117
0.10778411 -0.18824174 -0.01828463 71 42 122
0.06170048 0.10092349 -0.02468181 72 36 117
-0.00533972 0.25757709 -0.03280524 72 28 110
0.02933570 0.03129482 0.02957172 59 81 139
0.05912789 0.17906192 0.10110911 37 131 142
-0.04445162 0.06354634 -0.00893933 70 50 126
0.14130905 0.23634827 0.11383737 34 140 141
0.02272979 0.20886838 0.21525399 101 203 94
-0.17951858 0.03598765 -0.02338632 72 37 118
0.09997074 0.20381807 -0.02881438 72 32 113
-0.11103553 -0.24668834 -0.02041852 72 40 120
-0.09698105 -0.18346995 -0.01562890 71 44 122
0.04540007 0.21979186 0.20487244 86 198 103
0.08281508 -0.23519172 -0.02714654 72 33 115
-0.12267751 -0.02522602 -0.02037773 72 40 120
0.09934347 0.03147775 0.01975971 62 73 137
-0.11742220 -0.21750183 -0.01753667 71 42 122
0.09939346 0.16410910 -0.02892951 72 32 113
0.01952483 0.27628365 -0.03018090 72 31 112
-0.03412728 0.16119756 0.06332164 48 106 142
0.01877348 0.21399790 0.14650552 31 161 135
0.14749071 -0.16433352 -0.01674821 71 44 122
0.03114997 0.08623695 -0.02451466 72 36 117
0.14361852 -0.22065607 -0.01522693 71 45 123
-0.05805904 0.16932407 0.10210958 37 132 142
0.06026391 0.19593300 0.12161904 32 146 140
0.05146509 -0.03165061 0.06420216 47 107 142
-0.16378978 0.01127229 -0.02495038 72 36 117
0.02034007 0.23675947 0.24029514 144 215 67
0.13032015 -0.20266503 -0.01356747 71 46 124
-0.02292777 0.17687616 0.06053353 49 104 142
-0.01343090 0.19845881 0.21112497 94 201 98
0.17290583 -0.05996270 -0.01747284 71 42 122
0.07327232 0.23413548 -0.03421227 72 27 109
0.06302650 -0.24586765 -0.01814278 71 42 122
0.07848877 0.22818813 0.10752297 35 136 142
-0.03135818 0.18236223 0.08863562 41 123 142
-0.03697202 0.20570779 0.09714332 38 129 142
-0.06829643 0.07071168 -0.01177727 71 47 125
0.08491354 0.24425930 0.15288024 33 166 133
0.02440101 0.25711280 0.19281292 68 191 112
0.01265640 -0.02748559 -0.01804322 71 42 122
0.06992496 0.19481526 0.10871220 35 137 142
0.05452559 -0.00210353 -0.02348124 72 37 118
0.02922655 0.23674235 -0.02711910 72 33 115
-0.03193164 0.06025561 0.00937206 66 65 134
0.09872293 0.19802922 0.07007270 46 111 142
-0.17601252 -0.31946665 -0.02202794 72 38 119
-0.03974652 0.02190694 -0.01145017 71 47 125
0.08398632 0.08421755 -0.02339802 72 37 118
0.02256520 0.28009859 0.15642966 34 168 132
-0.15790699 -0.22531749 -0.02478339 72 36 117
0.10079283 0.19393000 0.08248141 42 119 142
-0.16315866 -0.31674135 -0.01880240 72 41 121
0.09214592 -0.25214627 -0.01672384 71 44 122
0.09293716 0.23923323 0.12246390 32 146 140
0.10769160 0.06783777 -0.02314784 72 37 118
-0.19611271 -0.22017100 -0.01496943 71 45 123
0.17602301 -0.14697741 -0.02220896 72 38 119
0.03577642 0.23590976 0.14666745 31 161 135
0.04446176 -0.18840112 -0.01299311 71 46 124
0.15633276 -0.00406667 -0.01990737 72 40 120
-0.12460123 -0.17089911 -0.02321308 72 37 118
0.07544088 0.00373776 -0.01984455 72 40 120
0.03510345 -0.05224996 0.05941865 49 104 142
0.14790866 0.11584438 -0.02598699 72 35 116
0.13900386 -0.11561614 -0.01536849 71 45 123
-0.14061442 -0.27558938 -0.01975260 72 41 121
0.11175039 0.26190430 -0.03212991 72 29 111
0.14838475 0.17909946 -0.02373285 72 37 118
0.08386193 0.07375009 0.00382441 67 61 132
-0.11622375 -0.18051429 -0.02242475 72 38 119
0.04282740 -0.21166763 -0.01961602 72 41 121
-0.07756767 -0.15396878 -0.02495059 72 36 117
-0.08455750 -0.24404083 -0.02006577 72 40 120
-0.11630469 0.10812771 -0.02591209 72 35 116
-0.07654842 -0.01970962 -0.02175331 72 38 119
0.09006897 0.24556139 0.13375801 31 153 138
-0.07624836 -0.00368805 -0.02158878 72 38 119
-0.00911228 0.21817176 0.22302759 112 207 87
0.07805156 0.09734675 -0.02370221 72 37 118
-0.02957083 0.16399087 0.05238354 51 99 141
0.01314584 0.19935957 0.21632114 103 204 92
0.09210197 -0.10006598 -0.01792083 71 42 122
0.13177136 0.18767285 -0.02860591 72 32 113
0.13156559 0.14026961 -0.02284875 72 37 118
0.08269285 0.17384480 0.08366382 42 120 142
-0.08225185 0.21542495 0.15160507 33 165 133
0.05279016 0.13050397 0.06161889 48 105 142
-0.08407518 -0.21966894 -0.01708329 71 42 122
0.11640047 -0.05192685 -0.01801383 71 42 122
0.16569586 -0.16364160 -0.01672723 71 44 122
0.17216922 0.10013953 -0.02129101 72 38 119
-0.18021160 0.00386450 -0.01980944 72 40 120
-0.18607558 -0.21326835 -0.02845130 72 32 113
0.01956077 0.12387500 -0.02633400 72 35 116
-0.00219619 -0.12782815 -0.01626074 71 44 122
-0.01154499 0.13225201 -0.02533279 72 36 117
0.05029486 0.28819397 -0.03057661 72 31 112
0.07766362 0.23526217 0.11649088 33 142 141
-0.19641483 0.05982021 -0.02098501 72 40 120
0.11599729 -0.01177041 -0.02028548 72 40 120
0.09112725 0.17436026 0.07463309 44 113 142
0.00386444 0.22155909 0.22470173 117 208 84
-0.07626871 0.11571535 -0.02348674 72 37 118
0.09666365 -0.21721140 -0.02538446 72 36 117
-0.17240718 0.05229454 -0.02335037 72 37 118
0.00494754 0.25183868 -0.03157650 72 29 111
0.06460676 0.15140717 0.06345847 48 106 142
-0.11614382 0.01203908 -0.02072483 72 40 120
0.03622777 -0.14790352 -0.01482370 71 45 123
0.03571667 0.25184608 -0.02785526 72 33 115
0.03419769 0.21353565 0.19922824 78 195 107
0.09994236 -0.01195487 -0.01989412 72 40 120
0.00310103 0.23398943 0.23526673 134 213 73
0.05997824 0.25198153 -0.02930543 72 32 113
0.01911694 0.27549767 0.17207207 45 178 125
0.04379777 -0.25193328 -0.01357062 71 46 124
0.01994385 0.13968818 -0.02728027 72 33 115
-0.01372385 0.28022927 -0.02496246 72 36 117
0.08453739 0.15657315 -0.02630605 72 35 116
-0.16364597 -0.01192512 -0.02218999 72 38 119
-0.11649323 -0.19549784 -0.01712538 71 42 122
0.14005241 0.13221529 -0.02263544 72 37 118
-0.05991282 -0.02021180 -0.01723515 71 42 122
-0.09196332 0.09942111 -0.02540780 72 36 117
-0.12315737 -0.00373508 -0.02010128 72 40 120
0.14840600 -0.02798254 -0.02064949 72 40 120
0.16991895 -0.08428455 -0.02753092 72 33 115
0.11637471 0.22781298 -0.02728662 72 33 115
0.15618333 0.08413420 -0.02240429 72 38 119
0.09411563 0.03558436 0.00358043 67 61 132
0.08513633 0.00992161 -0.01769719 71 42 122
0.02029717 -0.14807065 -0.01406410 71 46 124
0.09239779 -0.08393709 -0.01779792 71 42 122
0.17191221 0.08386253 -0.02173494 72 38 119
0.05241102 0.23609215 -0.02615500 72 35 116
0.01205070 -0.19593576 -0.01791433 71 42 122
0.16468130 -0.14841561 -0.01787355 71 42 122
0.04217909 -0.05806233 -0.01623886 71 44 122
0.14611693 0.02045348 -0.02486984 72 36 117
-0.04360751 0.21092699 0.12384994 32 146 140
0.16410920 -0.01201010 -0.01873093 72 41 121
0.10016246 -0.02798547 -0.01985182 72 40 120
-0.04483686 -0.24148276 -0.02182726 72 38 119
0.16403182 0.22908314 -0.02470385 72 36 117
-0.06944069 -0.18634775 -0.01774431 71 42 122
0.01065973 -0.09727352 0.04529580 53 94 141
0.04457864 0.21975058 0.13304384 31 153 138
0.03611009 -0.03606579 -0.01445247 71 45 123
0.13181551 -0.02788078 -0.01909360 72 41 121
0.02551738 0.25195292 0.22031307 110 206 88
-0.03547434 -0.14785886 -0.01402906 71 46 124
0.08892325 0.23531586 0.09071791 40 125 142
0.01203461 -0.26795098 -0.01935147 72 41 121
-0.13945957 0.08522174 -0.02409485 72 36 117
-0.01979394 -0.01238097 -0.01933755 72 41 121
0.08970651 0.25111023 0.12384517 32 146 140
-0.15809423 0.09119801 -0.02414544 72 36 117
-0.08457986 -0.16385552 -0.01979177 72 40 120
-0.18720022 0.01251100 -0.01954113 72 41 121
0.10025583 0.08393965 -0.02118742 72 38 119
0.00322805 -0.22668284 -0.02268021 72 37 118
0.17916608 -0.02761270 -0.02035923 72 40 120
-0.15632439 0.06800915 -0.02320192 72 37 118
-0.14037818 0.10685200 -0.02316770 72 37 118
0.11564130 -0.02793952 -0.02040595 72 40 120
-0.18773288 -0.31552061 -0.02468643 72 36 117
0.00245358 0.22020181 0.17052196 44 177 126
0.02657240 0.23596954 0.19127901 66 190 113
0.07572922 -0.11594482 -0.02056389 72 40 120
-0.18888532 0.07599305 -0.02614591 72 35 116
0.12416515 0.23582226 -0.02710251 72 33 115
0.11652616 -0.22091968 -0.01827261 71 42 122
0.00434919 0.12416719 -0.02519122 72 36 117
0.05987070 0.11589265 -0.02557683 72 35 116
-0.15583853 -0.17172547 -0.01967180 72 41 121
-0.19408767 -0.06509329 -0.02548895 72 35 116
-0.19538422 0.09674207 -0.02149969 72 38 119
-0.04385261 -0.17924421 -0.01731953 71 42 122
0.04355491 0.13916393 -0.02196877 72 38 119
-0.00287535 -0.21339390 -0.01720358 71 42 122
0.06034095 -0.11603598 -0.01820157 71 42 122
0.12430088 0.06789810 -0.02032348 72 40 120
0.12429924 -0.06789257 -0.01808117 71 42 122
-0.05179048 -0.21176368 -0.01258004 71 47 125
0.05610359 0.11912330 0.05262789 51 99 141
0.14002824 -0.15611281 -0.01674082 71 44 122
0.16398975 -0.17986138 -0.02073219 72 40 120
0.08410916 -0.05985711 -0.01913328 72 41 121
0.13215537 -0.00401283 -0.02087704 72 40 120
-0.09926999 -0.15677661 -0.01869293 72 41 121
-0.01110982 0.10792794 -0.02354048 72 37 118
-0.07283780 -0.21456420 -0.01595317 71 44 122
0.15385240 0.20175570 -0.02231059 72 38 119
-0.17230392 -0.00397985 -0.02164602 72 38 119
0.02120094 0.16290683 -0.02890509 72 32 113
-0.13978574 -0.17222582 -0.02120059 72 38 119
-0.10318454 -0.32218027 -0.01980180 72 40 120
0.16401383 -0.02788209 -0.01883515 72 41 121
-0.14864917 -0.31572318 -0.01999284 72 40 120
0.15608819 -0.09878203 -0.02157718 72 38 119
0.17178190 -0.00390043 -0.02236692 72 38 119
0.08151695 0.07036952 0.04016855 55 90 140
0.06055955 -0.26666358 -0.01348362 71 46 124
0.03086480 0.27831107 -0.03208610 72 29 111
-0.05923834 0.10819113 -0.02226142 72 38 119
0.08380508 -0.04409716 -0.02155575 72 38 119
0.01817371 -0.10270175 0.05273100 51 99 141
0.06842636 -0.04416383 -0.01900052 72 41 121
-0.05955788 -0.20332868 -0.01456742 71 45 123
0.07070726 -0.18718712 -0.01751986 71 42 122
-0.05194982 -0.22796646 -0.01206311 71 47 125
-0.14171349 -0.25244638 -0.01315762 71 46 124
0.05245268 0.09216509 -0.02167371 72 38 119
0.08417403 -0.18809140 -0.02046869 72 40 120
-0.14008500 -0.32417899 -0.01892096 72 41 121
0.07523680 0.17551455 0.09852581 38 130 142
-0.18131183 -0.25678733 -0.01229544 71 47 125
0.08889455 0.13413653 -0.02369111 72 37 118
0.01242698 0.22002003 0.18040536 53 183 121
-0.05958982 0.09145743 -0.01893541 72 41 121
-0.07588115 -0.26089376 -0.02601201 72 35 116
-0.15577532 -0.29201901 -0.01988422 72 40 120
-0.01193462 0.23409793 0.23506434 134 213 73
0.06783187 -0.05979424 -0.01926089 72 41 121
0.16094741 0.24641228 -0.02358734 72 37 118
0.08480853 0.06882173 -0.01743937 71 42 122
0.16422272 0.12385149 -0.02173125 72 38 119
0.10812082 -0.08372697 -0.01811343 71 42 122
0.12334976 0.08408200 -0.02211059 72 38 119
-0.15618521 0.05196176 -0.02316272 72 37 118
0.14758283 0.13987540 -0.02301810 72 37 118
0.12302965 0.11591569 -0.02368783 72 37 118
0.01975492 -0.20385502 -0.01975145 72 41 121
-0.05208380 0.15336937 0.08648477 41 122 142
-0.11539211 -0.28591505 -0.02317138 72 37 118
0.12988764 0.10776531 -0.02447458 72 36 117
-0.04400229 0.09192654 -0.02279765 72 37 118
0.16555542 -0.13521315 -0.01566353 71 44 122
-0.16412079 -0.24401605 -0.01031996 70 48 126
0.05997301 -0.01970310 -0.02273905 72 37 118
0.09285962 -0.12485389 -0.01532380 71 45 123
-0.04274539 0.13821882 0.07813796 43 116 142
-0.03187060 0.11441416 0.05610536 50 101 142
-0.17280221 -0.19422555 -0.02923570 72 32 113
0.08298323 0.23940797 -0.02884788 72 32 113
0.01450230 0.27151817 0.18831216 63 188 115
-0.06776559 0.20445402 0.12689495 31 148 140
0.06103977 -0.20642680 -0.01215532 71 47 125
0.04994280 -0.27412027 -0.01717539 71 42 122
0.06888391 0.23478000 0.14949667 32 163 134
-0.06824377 0.21937899 0.13221461 31 152 139
0.05938988 0.26736984 -0.03099813 72 31 112
-0.02658418 0.20418470 0.09645286 38 129 142
0.15561894 0.06967729 -0.02122942 72 38 119
0.09033696 0.19467449 0.08282995 42 119 142
-0.05960441 0.07114085 -0.01762337 71 42 122
-0.10856195 0.11507367 -0.02462287 72 36 117
-0.04343373 -0.25644463 -0.02597883 72 35 116
0.09394047 0.06243271 0.01283133 64 69 136
0.12376325 0.13216832 -0.02260470 72 37 118
-0.17874861 -0.02746024 -0.02292533 72 37 118
0.05382933 -0.07677735 -0.01501449 71 45 123
-0.02843281 0.09312368 -0.02424180 72 36 117
-0.06378323 -0.27262348 -0.03254437 72 28 110
0.09137492 0.02929421 0.03364292 58 84 140
-0.18089515 -0.34080324 -0.00879266 70 50 126
0.01238240 0.23583518 0.17184730 45 178 125
-0.07607950 -0.19619137 -0.02004779 72 40 120
-0.05970372 -0.00408332 -0.01920358 72 41 121
0.17244905 -0.01997720 -0.01818547 71 42 122
-0.08075117 0.21543486 0.16238946 38 173 129
-0.02244889 0.13951460 0.03732766 56 88 140
0.03821322 0.15765224 -0.02731069 72 33 115
-0.02292725 0.08427224 -0.02393977 72 37 118
-0.19582956 0.08425637 -0.02757633 72 33 115
0.12184760 -0.19675890 -0.01667631 71 44 122
0.04457064 0.22185688 -0.02509831 72 36 117
-0.15470153 -0.03716033 -0.03321418 72 28 110
-0.09921414 -0.01191229 -0.01964581 72 41 121
-0.05950614 -0.15066074 -0.01901658 72 41 121
0.16249773 -0.07522447 -0.02057164 72 40 120
0.05260137 0.17440240 0.09463802 39 128 142
0.12272254 0.17823520 -0.02909930 72 32 113
0.13226444 0.02016396 -0.02130025 72 38 119
0.11707598 0.16821051 -0.02388072 72 37 118
