ply
format ascii 1.0
element vertex 1024
property float x
property float y
property float z
property uchar red
property uchar green
property uchar blue
end_header
-0.19556366 -0.39602116 -0.00475206 69 53 129
-0.16593957 0.37733024 -0.00384712 69 55 129
0.19493438 -0.02011611 -0.00036313 68 57 131
-0.19780520 -0.00324130 -0.00453272 69 53 129
0.10649736 -0.32115877 -0.00154233 69 56 130
0.05805951 0.22135794 0.11445687 34 141 141
-0.00390753 -0.12394072 -0.00257201 69 56 130
-0.09892869 0.17019697 -0.00340035 69 55 129
-0.18833199 -0.19603543 -0.00455766 69 53 129
0.19507909 0.17170180 0.00009624 68 58 131
0.03907445 0.04084052 0.05818743 49 103 142
-0.05953785 -0.29998988 -0.00323751 69 55 129
-0.01212536 0.31359270 -0.00232669 69 56 130
0.18805861 -0.17995325 -0.00038815 68 57 131
-0.08271383 0.26688126 0.14008816 31 158 137
0.03650070 0.16407374 -0.00195312 69 56 130
-0.06802111 0.00454839 -0.00324065 69 55 129
0.11213163 0.26435125 -0.00073487 68 57 131
-0.17935799 0.26099518 -0.00421538 69 55 129
0.13198039 0.07593522 -0.00093649 68 57 131
0.08425452 -0.05193844 -0.00151728 69 56 130
0.07575354 -0.21183154 -0.00173390 69 56 130
-0.19612366 0.11599710 -0.00447806 69 53 129
-0.02036755 -0.05172843 0.07772350 43 116 142
-0.11660101 -0.11806840 -0.00374528 69 55 129
0.01694735 -0.36896494 -0.00254669 69 56 130
-0.09173573 -0.39616969 -0.00362930 69 55 129
-0.16312885 -0.30003026 -0.00437229 69 53 129
-0.06842394 -0.20400700 -0.00324468 69 55 129
-0.05279313 0.19621965 0.07617427 44 114 142
0.19504286 -0.27366182 -0.00033453 68 57 131
-0.03580025 0.10074405 -0.00277983 69 56 130
0.00437736 0.27484900 0.17214571 45 178 125
-0.02828118 0.22801483 -0.00259263 69 56 130
0.11644216 -0.13218223 -0.00126787 68 57 131
0.02758272 -0.28408799 -0.00233967 69 56 130
-0.09793635 0.32611448 -0.00340727 69 55 129
-0.12443011 0.06791344 -0.00372679 69 55 129
-0.19687879 -0.10826612 -0.00462023 69 53 129
0.19501647 -0.10015015 -0.00038301 68 57 131
0.11591081 0.15579674 -0.00108421 68 57 131
0.01217670 -0.00293176 -0.00219263 69 56 130
0.05196282 0.08398497 -0.00178560 69 56 130
-0.17184764 0.18766658 -0.00419068 69 55 129
0.01955978 0.18151829 0.06673377 46 109 142
0.00347114 -0.19600493 -0.00251084 69 56 130
0.04427690 0.23598450 -0.00177681 69 56 130
0.09500244 0.01933105 0.01999231 62 74 137
-0.13141868 -0.23603497 -0.00400315 69 55 129
0.02826164 -0.07603587 0.03594536 57 86 140
0.19491145 0.05189069 -0.00032985 68 57 131
0.13964280 -0.23600312 -0.00109353 68 57 131
0.17194696 0.23574087 -0.00025655 68 57 131
-0.13311613 -0.00042366 -0.00385778 69 55 129
0.03604480 -0.01974059 0.07596384 44 114 142
-0.01914799 0.05509454 0.03763327 56 88 140
-0.02821951 0.16243342 -0.00267572 69 56 130
-0.12469046 0.22807352 -0.00362376 69 55 129
0.14802735 -0.05994371 -0.00083077 68 57 131
-0.11629690 -0.33988169 -0.00389160 69 55 129
0.05230115 -0.14796874 -0.00198449 69 56 130
0.09913403 0.06419468 0.05822658 49 103 142
-0.06002450 -0.13987203 -0.00307943 69 55 129
-0.02789241 0.25475669 0.12440230 32 147 140
-0.04387439 -0.35597461 -0.00310759 69 55 129
0.19083133 0.11374685 0.00006664 68 58 131
-0.02054712 -0.25165850 -0.00279532 69 56 130
-0.03496685 0.00148763 0.05990702 49 104 142
-0.17923802 0.05168347 -0.00432396 69 53 129
0.08405539 -0.26823437 -0.00168719 69 56 130
0.14787668 0.01194651 -0.00087701 68 57 131
-0.13222401 0.12415418 -0.00380241 69 55 129
-0.19638282 -0.25205061 -0.00469284 69 53 129
-0.12424557 -0.17996518 -0.00387601 69 55 129
-0.05946968 0.28470045 -0.00296425 69 55 129
-0.08947424 0.21875229 0.10994979 35 137 142
0.04369406 0.29020947 -0.00178861 69 56 130
0.09168880 0.20397252 -0.00130233 68 57 131
0.01891226 0.28104749 0.12019515 33 145 140
-0.05965449 0.15748481 0.04188279 55 91 141
-0.19677050 -0.33989748 -0.00474943 69 53 129
-0.06233433 0.05611931 -0.00314994 69 55 129
-0.16369796 -0.14789291 -0.00432197 69 53 129
0.05165789 -0.33193511 -0.00208454 69 56 130
0.06837536 -0.09992667 -0.00175122 69 56 130
0.12437579 -0.18795821 -0.00119808 68 57 131
0.14812206 -0.29174903 -0.00095310 68 57 131
-0.11543034 -0.28420797 -0.00384914 69 55 129
-0.01192095 -0.31602395 -0.00278270 69 56 130
0.01166238 0.11591512 -0.00221607 69 56 130
-0.14821476 -0.38053894 -0.00426767 69 53 129
-0.08447343 0.10815386 -0.00323344 69 55 129
-0.07619636 -0.25232384 -0.00348620 69 55 129
-0.05737764 0.24723734 0.08650168 41 122 142
0.05577862 0.22405763 0.06622028 47 108 142
0.06038360 -0.00421441 -0.00176911 69 56 130
0.14043586 0.19600660 -0.00071013 68 57 131
0.02781461 -0.23615663 -0.00227068 69 56 130
0.09218861 0.10809170 -0.00134047 68 57 131
0.03532065 -0.04383470 -0.00174419 69 56 130
0.16424526 -0.13997635 -0.00075003 68 57 131
0.18811125 -0.22794718 -0.00055406 68 57 131
-0.00356134 0.26826006 -0.00229715 69 56 130
0.00387016 0.19597301 -0.00224814 69 56 130
0.01263877 -0.08314496 0.07795133 43 116 142
0.01494750 0.14944141 0.03523999 57 85 140
0.11587179 -0.01982818 -0.00117344 68 57 131
0.05807867 0.25903326 0.13794611 30 156 137
0.14796093 0.12402407 -0.00075806 68 57 131
-0.12525803 0.36079726 -0.00336704 69 55 129
0.07638080 0.01224174 0.05864571 49 103 142
0.09175369 0.06618243 0.01210018 65 68 135
-0.05206602 0.32977122 -0.00288494 69 55 129
-0.02818584 0.00028129 0.01206455 65 68 135
0.00403650 -0.00415968 0.04363674 54 92 141
0.05961759 0.07490414 0.04402198 54 93 141
-0.19687782 0.29924327 -0.00435062 69 53 129
-0.01214198 0.23775192 0.15922205 36 170 131
0.02791324 -0.09209364 -0.00216037 69 56 130
0.02093140 0.21351355 0.09846935 38 130 142
0.00211043 0.09030621 0.03589620 57 86 140
0.07587726 0.14799710 -0.00151390 69 56 130
-0.02744577 -0.16416641 -0.00279865 69 56 130
0.10809702 -0.09211388 -0.00132479 68 57 131
-0.10036113 0.03562333 -0.00356899 69 55 129
0.03555566 -0.02782393 0.03585242 57 86 140
-0.16444276 0.14814049 -0.00410063 69 55 129
0.14782779 -0.10007761 -0.00094908 68 57 131
-0.16389593 0.09208499 -0.00412451 69 55 129
0.08431983 -0.17213714 -0.00162012 69 56 130
-0.03646845 -0.39536798 -0.00308775 69 55 129
0.18809085 -0.06012701 -0.00036516 68 57 131
-0.15609904 -0.33999828 -0.00433782 69 53 129
0.04377693 -0.18829769 -0.00207025 69 56 130
-0.04436614 -0.10344833 -0.00297028 69 55 129
-0.06026923 0.14004786 -0.00305122 69 55 129
0.02132108 0.24997056 0.14305440 31 160 136
-0.04987634 -0.07468461 0.07728286 44 115 142
-0.15690862 -0.11121187 -0.00423083 69 55 129
-0.19649851 0.35605517 -0.00431416 69 53 129
-0.03497502 0.09186079 0.03734986 56 88 140
0.05990398 0.25816411 0.10087916 37 131 142
-0.06212130 0.17727607 -0.00307374 69 55 129
-0.05973949 0.23410182 0.12477864 32 147 140
0.07580816 0.26821780 -0.00145498 69 56 130
-0.09175505 -0.16386841 -0.00350063 69 55 129
-0.07638367 -0.33206108 -0.00352260 69 55 129
-0.00380565 -0.01215663 0.07793061 43 116 142
0.19263604 0.01582490 0.00007021 68 58 131
-0.13951950 0.03530275 -0.00393140 69 55 129
0.12404972 0.22785960 -0.00095002 68 57 131
0.06815935 -0.30005124 -0.00186348 69 56 130
-0.02739510 0.28774047 0.18138728 55 184 120
0.05171211 0.19615200 -0.00173712 69 56 130
0.01190181 -0.15569867 -0.00241087 69 56 130
-0.03636916 -0.21997252 -0.00301872 69 55 129
0.15582095 0.16411148 -0.00060013 68 57 131
0.15593401 -0.20396028 -0.00095679 68 57 131
0.11639552 0.04421331 -0.00114146 68 57 131
-0.15677042 -0.21162653 -0.00420818 69 55 129
-0.14822254 -0.26815313 -0.00417105 69 55 129
0.17219783 0.08399465 -0.00040333 68 57 131
-0.10011264 -0.22021280 -0.00367197 69 55 129
0.03137690 0.18417704 0.03384736 58 84 140
0.03152300 -0.05311251 0.06789334 46 110 142
-0.09556046 0.20955253 -0.00318250 69 55 129
0.10011891 -0.23604828 -0.00150786 69 56 130
-0.08303973 -0.11127526 -0.00355992 69 55 129
0.15609625 0.05185356 -0.00065869 68 57 131
0.19804332 -0.13580258 0.00002879 68 58 131
-0.13290942 0.16852558 -0.00371122 69 55 129
0.12393016 -0.26792669 -0.00123125 68 57 131
0.18592390 0.20487729 0.00008181 68 58 131
-0.19579844 0.16397607 -0.00445150 69 53 129
0.05233222 0.12399194 -0.00179697 69 56 130
0.16442834 -0.25989893 -0.00064236 68 57 131
-0.08466989 0.26424399 0.10670429 36 135 142
-0.19564515 -0.29244101 -0.00476208 69 53 129
-0.19588695 -0.15589511 -0.00465247 69 53 129
0.15630457 -0.02784052 -0.00059058 68 57 131
0.01174283 0.22817616 -0.00215164 69 56 130
-0.02739725 -0.28405464 -0.00289675 69 55 129
0.00391798 0.14805005 -0.00231658 69 56 130
-0.03645661 0.26001039 -0.00269598 69 56 130
-0.04320271 -0.02789968 0.07746504 44 115 142
-0.17198312 0.01952494 -0.00428743 69 53 129
0.08394783 0.23600321 -0.00137934 68 57 131
0.05208860 -0.26025012 -0.00203464 69 56 130
-0.14739516 0.25186932 -0.00386614 69 55 129
-0.08399425 -0.36396849 -0.00354121 69 55 129
0.04451818 0.19696970 0.08286337 42 119 142
0.01989650 -0.32413751 -0.00244393 69 56 130
-0.04981220 0.25723556 0.14837964 32 163 134
0.08383862 -0.13977154 -0.00161641 69 56 130
0.11566468 -0.05998336 -0.00123221 68 57 131
0.00201270 0.08557990 0.00395129 67 61 132
-0.13166313 -0.14779514 -0.00391791 69 55 129
-0.01236786 -0.34801567 -0.00281652 69 56 130
0.15614034 -0.17199546 -0.00080707 68 57 131
-0.11672415 -0.37183532 -0.00392787 69 55 129
-0.15640679 -0.17978254 -0.00425777 69 53 129
-0.06040887 -0.17168696 -0.00322125 69 55 129
-0.19561097 0.08425006 -0.00446423 69 53 129
0.02775246 -0.12411632 -0.00219258 69 56 130
-0.09998265 0.00450631 -0.00346817 69 55 129
-0.05363868 0.18788821 0.04426166 54 93 141
-0.09188507 0.13997155 -0.00327656 69 55 129
0.11614017 0.01195353 -0.00116793 68 57 131
0.07599339 0.04391370 0.05868683 49 103 142
-0.02824611 0.13201723 -0.00265999 69 56 130
0.10169920 0.04384954 0.03608124 57 86 140
-0.08200711 0.19871475 0.08163241 42 118 142
-0.17981313 -0.36438963 -0.00458901 69 53 129
0.02940485 0.22981004 0.12279677 32 146 140
-0.05155798 0.22019048 0.10011087 38 130 142
0.05960513 -0.06797320 -0.00181862 69 56 130
-0.01135412 -0.38008383 -0.00280870 69 56 130
-0.11613391 0.09984469 -0.00360805 69 55 129
0.02792192 0.26011631 -0.00197949 69 56 130
-0.01944140 -0.08069658 0.07755008 44 115 142
0.17217977 0.13992050 -0.00030822 68 57 131
-0.08390047 -0.28439292 -0.00352577 69 55 129
0.09203481 0.17202948 -0.00135879 68 57 131
0.12398730 0.10793836 -0.00097418 68 57 131
-0.17231835 -0.23593353 -0.00443744 69 53 129
0.10776319 -0.29181653 -0.00138534 68 57 131
-0.19644907 0.20258245 -0.00445837 69 53 129
0.01170317 -0.25996619 -0.00247045 69 56 130
0.13229445 -0.15606929 -0.00106822 68 57 131
-0.13135979 -0.30802026 -0.00406182 69 55 129
-0.04373423 -0.32387561 -0.00309170 69 55 129
-0.10786587 -0.25230697 -0.00377028 69 55 129
-0.05230782 -0.26805887 -0.00326543 69 55 129
-0.00422055 -0.09535700 -0.00258901 69 56 130
-0.02489108 0.26446846 0.16502714 39 173 129
-0.10000619 -0.31609067 -0.00371103 69 55 129
0.08408870 -0.02006047 -0.00148837 69 56 130
0.14686859 0.24926703 -0.00081989 68 57 131
-0.07576877 0.30798823 -0.00301663 69 55 129
0.01232965 0.29182383 -0.00212939 69 56 130
-0.00461542 -0.22813734 -0.00262838 69 56 130
-0.07358452 0.17837287 0.06194538 48 105 142
-0.05964391 -0.37957323 -0.00339885 69 55 129
0.00147902 0.25806519 0.12498077 32 147 140
0.17212909 -0.08400343 -0.00068425 68 57 131
0.17199126 -0.00412446 -0.00075087 68 57 131
0.01195162 -0.03590896 0.07799190 43 116 142
0.04378490 0.20202249 0.05408400 50 100 142
0.03763681 -0.01215303 0.01213918 65 68 135
-0.08846015 0.23837763 0.12933850 31 150 139
0.02603023 0.25807196 0.10691646 36 135 142
0.01601309 0.27746665 0.14756997 31 162 135
-0.03543871 0.30010191 -0.00261641 69 56 130
-0.05312157 0.25680184 0.11242183 34 139 141
0.02905133 -0.00772262 0.05191065 51 98 141
0.09717196 0.02812228 0.05787406 49 102 142
-0.11668473 0.14801568 -0.00362629 69 55 129
0.06002031 -0.03584204 -0.00179133 69 56 130
0.11588062 0.18796472 -0.00104890 68 57 131
-0.02836514 -0.13211295 -0.00280876 69 56 130
0.05226807 -0.22838806 -0.00200779 69 56 130
-0.02774331 -0.19598888 -0.00289578 69 55 129
0.11624530 -0.21205431 -0.00126133 68 57 131
-0.12339199 -0.39636260 -0.00398046 69 55 129
0.09241426 -0.11587248 -0.00146844 69 56 130
-0.09963823 -0.18798468 -0.00361442 69 55 129
0.02955008 -0.06797030 0.01196194 65 68 135
-0.06033195 -0.22818097 -0.00333261 69 55 129
0.19666542 0.14637503 0.00008926 68 58 131
0.10008752 0.13211648 -0.00122619 68 57 131
0.05999994 -0.12388494 -0.00183072 69 56 130
-0.12444155 -0.21173394 -0.00390433 69 55 129
0.10826582 -0.16405402 -0.00136296 68 57 131
0.17203651 -0.11594225 -0.00064574 68 57 131
-0.18755634 -0.31633493 -0.00469842 69 53 129
0.02783086 0.14003517 -0.00204465 69 56 130
0.08345487 -0.33132187 -0.00171188 69 56 130
0.14798351 0.22012487 -0.00052845 68 57 131
-0.15647689 0.06804825 -0.00409233 69 55 129
-0.17163156 0.12404490 -0.00423024 69 55 129
0.04365705 -0.30811578 -0.00215098 69 56 130
0.07634705 -0.24416915 -0.00171788 69 56 130
0.00372210 -0.29191646 -0.00259036 69 56 130
0.09240673 0.00381338 -0.00134632 68 57 131
-0.00361937 0.17203641 -0.00237047 69 56 130
0.16419812 0.18806370 -0.00059716 68 57 131
0.08447080 0.06821790 0.03593989 57 86 140
0.19518425 -0.20405871 -0.00053956 68 57 131
0.06020273 0.17173202 -0.00165613 69 56 130
-0.01194261 0.10787519 -0.00247980 69 56 130
0.10838064 0.08386535 -0.00123858 68 57 131
-0.18882115 -0.13202995 -0.00453937 69 53 129
0.02835583 0.09171994 -0.00209514 69 56 130
-0.07636921 0.02792669 -0.00318693 69 55 129
-0.09998309 -0.14045019 -0.00362760 69 55 129
-0.19525631 -0.21985938 -0.00469100 69 53 129
0.13983977 -0.12401090 -0.00102414 68 57 131
-0.01949297 0.20422436 -0.00252459 69 56 130
-0.07665093 0.33877745 -0.00317125 69 55 129
0.17211217 -0.28343719 -0.00055356 68 57 131
-0.05502276 0.17060050 0.02140866 62 76 138
0.05190631 0.01969566 0.05839112 49 103 142
-0.19515911 0.02804679 -0.00452336 69 53 129
-0.05983649 0.10790673 -0.00299345 69 55 129
-0.04424897 0.01130172 -0.00297840 69 55 129
0.02851309 0.18806410 -0.00200471 69 56 130
-0.17163005 -0.38792706 -0.00453440 69 53 129
0.02832871 0.16512047 0.05071625 52 97 141
0.02830268 -0.21162619 -0.00223120 69 56 130
-0.13924429 0.09180282 -0.00387178 69 55 129
0.05992547 0.07470156 0.01955379 62 73 137
-0.00228472 -0.00336289 0.02001491 62 74 137
0.07635125 0.08389129 -0.00151000 69 56 130
0.00428221 -0.06035250 0.07795393 43 116 142
-0.17118032 -0.27587569 -0.00444733 69 53 129
0.05213520 0.26010975 -0.00169397 69 56 130
0.19633929 0.22665916 0.00012015 68 58 131
0.14819865 0.09989990 -0.00085466 68 57 131
-0.02482927 -0.00009995 0.03592233 57 86 140
0.16404563 -0.22800727 -0.00086821 68 57 131
0.05739879 0.23595893 0.09198197 39 126 142
0.08397731 -0.07598473 -0.00158370 69 56 130
0.19616729 0.08392249 0.00008407 68 58 131
0.12441009 0.13189922 -0.00095769 68 57 131
0.02823607 -0.07591456 0.05989845 49 104 142
-0.05170224 0.22012526 0.07612159 44 114 142
0.03439044 0.26761171 0.13354184 31 153 138
0.03227599 -0.05033638 0.04415435 54 93 141
-0.19665255 0.13989826 -0.00444026 69 53 129
-0.04004739 0.06661891 0.03717500 56 88 140
0.02848035 -0.34807146 -0.00230863 69 56 130
-0.14876586 0.35670272 -0.00376736 69 55 129
0.17223261 0.02784680 -0.00049015 68 57 131
-0.17916565 -0.17243499 -0.00448895 69 53 129
-0.09300274 0.05784263 -0.00344509 69 55 129
-0.08425353 0.18839820 -0.00319092 69 55 129
-0.04392654 -0.05216002 0.07743564 44 115 142
-0.10367745 0.35206687 -0.00334260 69 55 129
0.02134777 -0.00671140 0.02836278 59 81 139
0.03590995 -0.16428633 -0.00213288 69 56 130
0.07580602 0.06744860 0.05864585 49 103 142
-0.08300233 0.23685573 0.09722826 38 129 142
0.06009192 -0.17202981 -0.00187275 69 56 130
-0.04378336 -0.24416772 -0.00299168 69 55 129
-0.00024276 0.06613396 0.03059807 59 82 139
-0.01213764 0.24425909 -0.00238145 69 56 130
0.02798176 0.21204299 -0.00199670 69 56 130
-0.17982918 0.28383186 -0.00418202 69 55 129
0.10025180 -0.19578885 -0.00140115 68 57 131
-0.15591107 -0.00073147 -0.00412482 69 55 129
0.13099073 -0.30666989 -0.00118829 68 57 131
0.13212456 0.17211552 -0.00081399 68 57 131
0.13193633 -0.07593191 -0.00103838 68 57 131
-0.02011131 -0.02792150 0.07771268 43 116 142
0.18807842 -0.25210121 -0.00068086 68 57 131
-0.15550375 0.17198388 -0.00399954 69 55 129
0.18812338 -0.15615915 -0.00052513 68 57 131
0.05223820 -0.28394654 -0.00204612 69 56 130
0.13979627 0.03613773 -0.00089906 68 57 131
0.07598972 0.12390656 -0.00152372 69 56 130
-0.14039499 -0.35622591 -0.00416312 69 55 129
0.10008393 0.02779564 -0.00115227 68 57 131
0.14002541 -0.01223797 -0.00090787 68 57 131
-0.10779572 0.12403347 -0.00352595 69 55 129
0.17198695 -0.04399629 -0.00072628 68 57 131
-0.00348769 -0.17210747 -0.00255812 69 56 130
-0.14058191 -0.19600959 -0.00406277 69 55 129
0.06816922 0.21999645 -0.00156461 69 56 130
0.02023703 0.19763695 0.08258877 42 119 142
0.13227591 -0.04397604 -0.00099593 68 57 131
0.05149981 0.24547087 0.11725971 33 143 141
0.09988501 -0.03588273 -0.00130695 68 57 131
-0.01997626 0.28401363 -0.00246640 69 56 130
0.01991931 -0.17982671 -0.00231000 69 56 130
-0.07606337 0.15576971 -0.00317410 69 55 129
0.07614640 0.18815643 -0.00143480 69 56 130
0.04443822 -0.10808945 -0.00205216 69 56 130
0.13979211 0.14783667 -0.00089154 68 57 131
0.12360619 -0.10791713 -0.00112712 68 57 131
0.04387758 0.20897722 0.10281180 37 132 142
0.05206922 0.05995666 0.05844875 49 103 142
-0.14765094 -0.13255608 -0.00412383 69 55 129
-0.01238286 -0.14801551 -0.00265027 69 56 130
0.05187371 0.14828937 -0.00174763 69 56 130
-0.01157101 -0.00149972 -0.00227425 69 56 130
-0.12345193 0.02033306 -0.00373729 69 55 129
-0.01216956 -0.00178214 0.06048010 49 104 142
0.00445022 0.25979516 0.15619622 34 168 132
0.09135652 0.00607450 0.04390144 54 93 141
-0.14639397 0.23005061 -0.00380086 69 55 129
0.03319336 -0.04386007 0.01982956 62 74 137
-0.14003409 0.14818235 -0.00383685 69 55 129
0.04106271 0.18216838 0.06689475 46 109 142
-0.12065262 0.20708421 -0.00380206 69 55 129
-0.05770048 0.26098329 -0.00298348 69 55 129
0.01942295 -0.00647784 0.07618148 44 114 142
0.01789275 0.16478144 0.02081959 62 74 137
-0.02814651 0.24599546 0.14852786 32 163 134
0.01241914 -0.10794232 -0.00233057 69 56 130
-0.17109558 0.35714659 -0.00403007 69 55 129
-0.06826603 0.25828394 0.12660462 31 148 140
0.02643061 -0.08809006 0.01812570 63 72 137
0.10817716 0.24405418 -0.00111544 68 57 131
-0.01920605 0.07575597 0.03759186 56 88 140
0.04891390 -0.35238451 -0.00213763 69 56 130
-0.06842961 0.21112813 0.09277112 39 126 142
-0.01984952 -0.10809186 -0.00269330 69 56 130
0.05724782 0.21239750 0.08440728 42 120 142
0.18025497 0.15821545 0.00002123 68 58 131
-0.05985910 -0.11592393 -0.00317619 69 55 129
-0.04114985 -0.00512273 0.07749417 44 115 142
0.03596307 0.00134570 -0.00203100 69 56 130
0.17213783 0.10801069 -0.00057760 68 57 131
0.10183851 0.04406358 0.01188981 65 68 135
-0.19673084 0.06030248 -0.00450776 69 53 129
-0.17128114 -0.12413720 -0.00434501 69 53 129
0.19393116 -0.04185311 0.00004078 68 58 131
-0.05427880 0.17424390 0.05773841 49 102 142
0.09250595 -0.30803031 -0.00160109 69 56 130
0.05827112 0.26480755 0.11876404 33 144 141
0.01996708 0.25404498 0.12457681 32 147 140
0.03422267 -0.03615718 0.05998364 49 104 142
0.12961875 0.25679937 -0.00099661 68 57 131
-0.01140800 -0.26810732 -0.00272992 69 56 130
0.19701703 -0.07666582 0.00003913 68 58 131
-0.09927633 -0.34783852 -0.00365509 69 55 129
-0.16335285 0.03608923 -0.00420887 69 55 129
-0.05200634 -0.18832965 -0.00312915 69 55 129
-0.18063879 0.10018361 -0.00429371 69 53 129
-0.06844938 -0.39592505 -0.00333002 69 55 129
0.14782037 -0.26817477 -0.00103892 68 57 131
0.10105310 0.06375578 0.02796938 60 80 139
-0.06787076 -0.34846455 -0.00348413 69 55 129
-0.08362713 -0.13190193 -0.00333358 69 55 129
-0.17271355 -0.33204105 -0.00448174 69 53 129
0.01983129 0.17185722 -0.00209237 69 56 130
-0.09213869 -0.26797098 -0.00364547 69 55 129
-0.13950117 -0.33212423 -0.00414335 69 55 129
-0.12440975 -0.26819411 -0.00392047 69 55 129
-0.14045635 -0.29209119 -0.00416062 69 55 129
0.00408464 -0.33990771 -0.00258451 69 56 130
0.06776503 0.10009654 -0.00162534 69 56 130
-0.06627083 0.23006620 0.10483575 36 134 142
-0.19414765 0.27179381 -0.00412911 69 55 129
0.03587107 0.11598638 -0.00197986 69 56 130
-0.05129971 0.15599237 -0.00294996 69 55 129
-0.15688777 -0.36411288 -0.00436344 69 53 129
0.10814580 0.21191791 -0.00110099 68 57 131
-0.15587793 -0.24390182 -0.00426951 69 53 129
-0.14803578 0.10779984 -0.00393000 69 55 129
0.19105023 0.03399795 0.00004092 68 58 131
-0.14754336 -0.16384244 -0.00407604 69 55 129
-0.03535101 0.32247889 -0.00257428 69 56 130
-0.04382458 -0.14822315 -0.00294000 69 55 129
-0.08423151 -0.23597455 -0.00348469 69 55 129
-0.08377827 -0.30791265 -0.00348031 69 55 129
0.09202103 0.26005301 -0.00127202 68 57 131
-0.01994598 -0.00327096 0.07680222 44 115 142
-0.14865942 0.13182344 -0.00399112 69 55 129
0.10032339 -0.26022342 -0.00152608 69 56 130
-0.03591852 -0.30005866 -0.00306861 69 55 129
-0.05174536 0.30797073 -0.00272604 69 56 130
0.07581188 -0.15598099 -0.00168433 69 56 130
0.09998170 -0.14801913 -0.00144971 69 56 130
-0.17997989 0.00335524 -0.00433940 69 53 129
-0.17259805 0.07612801 -0.00423120 69 55 129
0.06783979 0.24410112 -0.00155075 69 56 130
-0.13968432 -0.25204682 -0.00409609 69 55 129
-0.03531642 -0.37182644 -0.00310929 69 55 129
0.04395506 -0.08391803 -0.00199311 69 56 130
0.09212739 -0.21992217 -0.00152431 69 56 130
-0.18806680 -0.26800200 -0.00465241 69 53 129
-0.12366412 0.04379527 -0.00372282 69 55 129
-0.05192810 0.12405974 -0.00290345 69 55 129
-0.01164683 0.27584845 0.18023977 53 183 121
0.03570477 -0.26804909 -0.00218591 69 56 130
0.15590599 -0.24402186 -0.00094252 68 57 131
0.10013828 0.22798184 -0.00120021 68 57 131
0.04395548 -0.02784039 -0.00194650 69 56 130
-0.09164046 -0.20403014 -0.00352735 69 55 129
-0.07619481 0.12405280 -0.00322389 69 55 129
-0.02842484 -0.34005353 -0.00295941 69 55 129
0.16412045 0.06787954 -0.00061314 68 57 131
0.16385393 0.21180268 -0.00030845 68 57 131
0.19349326 -0.00206976 0.00004217 68 58 131
-0.14043747 0.05987549 -0.00392149 69 55 129
-0.00423040 -0.04396879 0.07778833 43 116 142
0.05967011 -0.20396845 -0.00191079 69 56 130
0.01188990 -0.30813217 -0.00249007 69 56 130
0.05994016 0.28272995 -0.00157477 69 56 130
-0.10758796 -0.38789290 -0.00382238 69 55 129
0.06006206 -0.31599191 -0.00197093 69 56 130
0.04357055 -0.06007500 -0.00197251 69 56 130
-0.14058535 -0.21940051 -0.00406001 69 55 129
0.13987298 -0.21178882 -0.00102878 68 57 131
-0.06757744 -0.31594476 -0.00328522 69 55 129
0.03070266 -0.05995253 0.02788031 60 80 139
0.01201323 0.25200632 -0.00213005 69 56 130
0.01254294 -0.22001743 -0.00238596 69 56 130
0.13181967 -0.28393763 -0.00116967 68 57 131
-0.00378847 0.13195974 -0.00238717 69 56 130
-0.05162918 -0.33987391 -0.00320269 69 55 129
-0.01994067 -0.21202911 -0.00277623 69 56 130
-0.07595214 -0.14800276 -0.00326219 69 55 129
0.17198363 -0.19618201 -0.00085483 68 57 131
-0.10800126 -0.17223699 -0.00370689 69 55 129
-0.17249769 0.16404326 -0.00419519 69 55 129
0.11603384 -0.24407101 -0.00129640 68 57 131
0.15619536 -0.07602441 -0.00085430 68 57 131
0.18023525 -0.13213196 -0.00047371 68 57 131
0.08403356 -0.29198235 -0.00170819 69 56 130
0.01143600 -0.00518298 0.06032046 49 104 142
-0.00367810 -0.36402029 -0.00267641 69 56 130
0.04414556 -0.13196616 -0.00199033 69 56 130
0.13984221 0.05997747 -0.00086385 68 57 131
-0.15530609 -0.31599668 -0.00430752 69 53 129
-0.01210503 0.18805909 -0.00241816 69 56 130
-0.05258256 0.20380753 0.06011743 49 104 142
0.07629454 -0.18797918 -0.00173152 69 56 130
-0.19564977 -0.37240246 -0.00478094 69 53 129
-0.07608370 -0.18800156 -0.00331067 69 55 129
0.17219913 -0.16398594 -0.00060358 68 57 131
0.13199784 0.21201880 -0.00084678 68 57 131
0.12408878 0.02793210 -0.00105502 68 57 131
-0.00400002 0.22007617 -0.00231087 69 56 130
0.13181682 -0.25207803 -0.00114002 68 57 131
0.14835839 -0.14776568 -0.00079908 68 57 131
0.10605907 0.05932597 0.00402166 67 61 132
0.12392625 -0.00409384 -0.00107736 68 57 131
0.06020646 0.03599520 0.05851695 49 103 142
0.04399503 0.09991604 -0.00187213 69 56 130
-0.01955672 -0.18034607 -0.00275223 69 56 130
0.01994660 -0.13998789 -0.00228293 69 56 130
0.18779121 0.06803634 -0.00039106 68 57 131
0.00395497 -0.24412806 -0.00251592 69 56 130
0.04443035 -0.24417077 -0.00210687 69 56 130
0.14811325 0.17995121 -0.00067949 68 57 131
-0.04411168 0.27586696 -0.00268182 69 56 130
0.14830837 -0.18809074 -0.00088467 68 57 131
-0.18819955 0.17985633 -0.00435343 69 53 129
0.06446368 -0.34415206 -0.00198677 69 56 130
-0.07588138 -0.21994810 -0.00339488 69 55 129
0.10783160 0.11612820 -0.00116620 68 57 131
-0.10771179 -0.30000603 -0.00381322 69 55 129
-0.19611153 -0.18027659 -0.00463023 69 53 129
-0.11658935 -0.19577435 -0.00382998 69 55 129
-0.01181915 0.15583186 -0.00246599 69 56 130
-0.11624063 -0.15614015 -0.00381076 69 55 129
-0.05017097 0.23615454 0.10816654 35 136 142
0.02011820 0.27612579 -0.00201018 69 56 130
0.04415004 0.17978443 -0.00180687 69 56 130
-0.16338001 0.26804969 -0.00405630 69 55 129
-0.02841969 -0.23588450 -0.00289598 69 55 129
0.06839626 -0.27594125 -0.00185719 69 56 130
0.09961945 -0.01213449 -0.00137973 68 57 131
-0.04436866 -0.20400204 -0.00297924 69 55 129
-0.06792516 -0.27578336 -0.00327190 69 55 129
-0.11560616 -0.22815466 -0.00380961 69 55 129
0.12418958 -0.22801790 -0.00121514 68 57 131
-0.17094724 -0.19597274 -0.00440202 69 53 129
-0.09192999 0.02024320 -0.00333438 69 55 129
-0.08954021 0.20665582 0.09750839 38 130 142
-0.06591308 0.26225355 0.14430761 31 161 136
-0.12351945 -0.32410929 -0.00396690 69 55 129
0.10032570 -0.06803987 -0.00139727 68 57 131
0.17794180 0.17531523 0.00001711 68 58 131
-0.03579016 -0.25969657 -0.00304726 69 55 129
0.02842824 -0.06791126 0.07612783 44 114 142
-0.06181258 0.03711503 -0.00297180 69 55 129
-0.04449139 -0.12367052 -0.00296968 69 55 129
-0.17928305 0.13949576 -0.00428784 69 53 129
-0.16476709 -0.25999209 -0.00436437 69 53 129
-0.09960467 -0.37219232 -0.00370559 69 55 129
-0.04382684 0.24456175 -0.00274684 69 56 130
0.19697447 -0.11714575 0.00002086 68 58 131
-0.14701696 0.01994012 -0.00398655 69 55 129
-0.18031150 -0.29997870 -0.00455468 69 53 129
0.18005635 -0.21199055 -0.00064208 68 57 131
0.00338432 0.30650046 -0.00219872 69 56 130
-0.18013000 -0.21198775 -0.00449871 69 53 129
-0.11033795 0.08384373 -0.00359119 69 55 129
-0.14068846 -0.11632269 -0.00399142 69 55 129
0.17989907 -0.02805783 -0.00041339 68 57 131
-0.15512256 -0.39606133 -0.00435028 69 53 129
0.19435368 0.18858393 -0.00017692 68 57 131
0.18807417 0.13184999 -0.00027725 68 57 131
-0.17947640 -0.25172886 -0.00453033 69 53 129
0.07621709 0.07036015 0.01953620 62 73 137
0.09627490 0.02328059 0.03632527 57 86 140
-0.17963967 -0.10954885 -0.00440412 69 53 129
-0.07585031 0.23037922 0.12163292 32 146 140
-0.09987465 -0.11678988 -0.00352627 69 55 129
-0.03568196 0.14742349 -0.00271192 69 56 130
-0.05266213 0.20658575 0.08938368 40 124 142
0.09261064 0.14797208 -0.00131827 68 57 131
-0.06786332 0.32428837 -0.00304358 69 55 129
-0.17192149 -0.34870335 -0.00452489 69 53 129
-0.04374090 -0.17202158 -0.00299703 69 55 129
0.09222823 0.07601177 -0.00132237 68 57 131
-0.13275665 0.24258700 -0.00365002 69 55 129
0.02769522 0.23601231 -0.00192906 69 56 130
-0.06819800 0.19063030 0.07369256 44 113 142
-0.04395942 -0.28393883 -0.00301200 69 55 129
-0.00456715 0.29200161 -0.00230083 69 56 130
-0.10754120 0.19702902 -0.00340650 69 55 129
0.03508707 0.24721408 0.11752049 33 143 141
-0.02018038 -0.36394319 -0.00285787 69 55 129
0.14844716 0.07599114 -0.00067752 68 57 131
-0.16257641 0.24555591 -0.00403184 69 55 129
0.04845705 0.20584510 0.06937007 46 111 142
0.07608435 0.00193908 -0.00157625 69 56 130
-0.13154812 0.10774025 -0.00377626 69 55 129
-0.08375101 -0.38039142 -0.00360736 69 55 129
0.03557388 -0.14787044 -0.00213285 69 56 130
0.17976110 0.22009213 -0.00025417 68 57 131
-0.18011262 -0.14755595 -0.00444978 69 53 129
0.10585672 0.05915013 0.04412595 54 93 141
-0.11637955 0.00414518 -0.00368487 69 55 129
-0.10875559 0.21928442 -0.00345345 69 55 129
-0.04424857 0.25851929 0.12610252 31 148 140
0.17228635 -0.24399157 -0.00052140 68 57 131
-0.08381066 0.04428440 -0.00324106 69 55 129
-0.01955009 -0.30018261 -0.00284134 69 55 129
0.16422586 0.01181134 -0.00067432 68 57 131
0.16416286 -0.10001250 -0.00080933 68 57 131
-0.00380565 -0.07598773 0.07786743 43 116 142
0.07609087 -0.11588053 -0.00165950 69 56 130
0.15587725 0.14007470 -0.00045798 68 57 131
0.15613420 -0.12388931 -0.00075530 68 57 131
-0.15704820 -0.28397816 -0.00431669 69 53 129
-0.02809078 0.00925216 -0.00280336 69 56 130
0.06797681 -0.05185319 -0.00172173 69 56 130
0.07628579 -0.03584742 -0.00161283 69 56 130
0.02818874 -0.03586477 0.07820863 43 116 142
0.02746511 0.29767218 -0.00194704 69 56 130
0.02009622 -0.19605157 -0.00233255 69 56 130
0.06814347 0.20377737 -0.00156273 69 56 130
0.04491806 0.23544943 0.12816224 31 149 139
0.15603428 0.02822824 -0.00054518 68 57 131
0.01147144 -0.27616659 -0.00248475 69 56 130
0.01179654 0.21198948 -0.00215444 69 56 130
-0.02810030 -0.31596088 -0.00286436 69 55 129
0.09975708 0.04408582 0.05834647 49 103 142
0.09192607 -0.09196837 -0.00148138 69 56 130
-0.17997101 0.03555133 -0.00434031 69 53 129
0.16410537 0.12389430 -0.00055135 68 57 131
0.17221491 0.04398353 -0.00036219 68 57 131
0.03602448 -0.32375053 -0.00225039 69 56 130
0.00203111 0.08573119 0.02008128 62 74 137
-0.16414602 -0.16401365 -0.00428385 69 53 129
0.13184044 -0.09205094 -0.00103439 68 57 131
-0.15665849 0.05193108 -0.00406877 69 55 129
0.00375278 -0.32380429 -0.00260521 69 56 130
-0.01236441 0.25545847 0.16042084 37 171 130
0.05207872 0.21993379 -0.00172773 69 56 130
0.10824148 0.09995254 -0.00120970 68 57 131
0.10814049 -0.18012901 -0.00139118 68 57 131
-0.02038549 0.26002279 -0.00249763 69 56 130
0.12417731 0.09186969 -0.00098521 68 57 131
0.11582214 0.17189790 -0.00106744 68 57 131
-0.06015431 -0.25161865 -0.00320752 69 55 129
0.15607396 -0.01177342 -0.00067419 68 57 131
0.03669680 -0.01992426 0.05993605 49 104 142
0.13223037 -0.02794410 -0.00099076 68 57 131
0.14011428 -0.17189255 -0.00097938 68 57 131
0.01204020 0.09989667 -0.00225463 69 56 130
-0.13274151 -0.37186033 -0.00408767 69 55 129
-0.19582932 -0.23604912 -0.00469532 69 53 129
0.15580657 0.23599625 -0.00045082 68 57 131
0.17222150 -0.06800151 -0.00054951 68 57 131
0.11588310 -0.03603458 -0.00117969 68 57 131
0.07603418 -0.22817297 -0.00172525 69 56 130
0.05995170 -0.08401272 -0.00185292 69 56 130
0.13231228 -0.14007328 -0.00105787 68 57 131
0.03741109 -0.01193996 0.03601923 57 86 140
-0.06164428 0.01921165 -0.00310998 69 55 129
-0.01229087 -0.33202723 -0.00278250 69 56 130
0.17203984 -0.17996791 -0.00073950 68 57 131
0.09990526 0.18808560 -0.00118083 68 57 131
0.11596373 -0.07617234 -0.00122511 68 57 131
0.06811653 -0.01984444 -0.00169405 69 56 130
0.09992776 -0.13204950 -0.00144882 69 56 130
0.11631394 -0.14814702 -0.00129043 68 57 131
-0.19633658 -0.35646027 -0.00476391 69 53 129
0.18015870 -0.26792926 -0.00054597 68 57 131
-0.11691180 -0.35592496 -0.00392117 69 55 129
0.09203207 0.09191246 -0.00135891 68 57 131
0.04437831 0.26081103 0.10303809 37 132 142
0.13213786 -0.05992186 -0.00102347 68 57 131
0.07602315 0.16387185 -0.00151429 69 56 130
-0.02766050 0.11617332 -0.00263065 69 56 130
-0.09983522 -0.33199424 -0.00369248 69 55 129
0.02954825 -0.07598906 -0.00171484 69 56 130
0.03656398 0.27606606 -0.00184907 69 56 130
0.02804214 -0.25199172 -0.00229799 69 56 130
0.06655859 0.07285916 0.00423316 67 61 132
0.06819916 -0.26011738 -0.00181752 69 56 130
0.10007676 -0.05177064 -0.00135349 68 57 131
-0.13172036 -0.16393888 -0.00397697 69 55 129
-0.19644246 0.04448370 -0.00449855 69 53 129
-0.14008087 -0.18019831 -0.00404545 69 55 129
0.10809931 -0.27600968 -0.00135803 68 57 131
0.02803320 -0.29988351 -0.00233392 69 56 130
0.02019115 0.15606835 -0.00211534 69 56 130
0.14805624 -0.04400466 -0.00088509 68 57 131
0.01912815 -0.00647591 0.01275352 64 69 136
-0.15503074 -0.22815862 -0.00424733 69 53 129
-0.14005896 0.07606083 -0.00391005 69 55 129
0.05988375 -0.18821777 -0.00187196 69 56 130
-0.09194059 -0.25219217 -0.00361723 69 55 129
-0.07593523 -0.16374587 -0.00327753 69 55 129
-0.01143048 -0.28384051 -0.00273674 69 56 130
0.03550992 -0.02830923 0.01999967 62 74 137
0.13215521 0.01183665 -0.00098473 68 57 131
-0.06010204 -0.15559204 -0.00315470 69 55 129
0.02969578 0.21748823 0.11089931 35 138 141
0.08388761 0.22009005 -0.00139647 68 57 131
0.09138896 0.00608220 0.02818623 60 80 139
0.03857583 0.18740639 0.05159793 51 98 141
-0.00422909 -0.21201135 -0.00261356 69 56 130
0.05693133 0.19954707 0.09344149 39 127 142
0.01960654 -0.05203559 0.07806800 43 116 142
-0.08372267 0.00442077 -0.00327491 69 55 129
-0.08274740 0.25376454 0.13145861 31 152 139
0.07575459 -0.31577390 -0.00180969 69 56 130
-0.09190928 0.15617490 -0.00329009 69 55 129
-0.07610329 0.13971542 -0.00324489 69 55 129
0.01211183 -0.12410641 -0.00237524 69 56 130
0.12447666 -0.17196195 -0.00118949 68 57 131
-0.10748679 0.05195032 -0.00352678 69 55 129
-0.12409607 -0.13178591 -0.00383192 69 55 129
0.01499420 0.26984698 0.13396311 31 153 138
0.01183324 0.13199040 -0.00220411 69 56 130
-0.06810812 -0.36408117 -0.00348752 69 55 129
-0.01968837 0.29992995 -0.00243610 69 56 130
0.03237078 0.20441473 0.08966880 40 124 142
0.12425359 0.05989499 -0.00102984 68 57 131
-0.12410628 -0.25206047 -0.00392921 69 55 129
0.06828992 -0.13992803 -0.00175397 69 56 130
-0.08374278 -0.34758162 -0.00350207 69 55 129
0.04381387 -0.21149886 -0.00208554 69 56 130
-0.14718559 -0.14802982 -0.00414612 69 55 129
-0.09970100 -0.23578717 -0.00365513 69 55 129
-0.00424355 -0.02759837 0.07791738 43 116 142
-0.02840126 0.24426185 -0.00259079 69 56 130
-0.10000793 -0.28381357 -0.00371424 69 55 129
-0.09161904 0.12379633 -0.00333474 69 55 129
-0.04950592 0.25690240 0.09556967 39 128 142
-0.05185191 -0.39603123 -0.00320691 69 55 129
-0.02830958 -0.06811093 0.07755944 44 115 142
0.00456234 -0.14006963 -0.00243287 69 56 130
0.11569034 -0.30811289 -0.00139547 68 57 131
0.04415990 -0.01165103 -0.00194111 69 56 130
0.07640381 0.02760636 0.05866537 49 103 142
0.05559933 0.21888663 0.09822604 38 130 142
0.10775246 -0.11569775 -0.00127595 68 57 131
0.04335931 0.25481808 0.13758565 30 156 137
0.01238257 -0.01993836 0.07802533 43 116 142
-0.02852746 -0.14794540 -0.00280702 69 56 130
-0.04038107 0.00211569 0.04562491 53 94 141
-0.09215593 0.34024653 -0.00315081 69 55 129
0.02766620 -0.10787854 -0.00218938 69 56 130
-0.19586781 0.10016632 -0.00450255 69 53 129
-0.17234460 -0.31577516 -0.00447796 69 53 129
-0.01174695 -0.19612406 -0.00267278 69 56 130
-0.05578649 0.22348292 0.11464911 34 141 141
-0.09966817 0.10831907 -0.00340547 69 55 129
-0.11630586 0.16317306 -0.00358909 69 55 129
0.09153586 0.01237699 0.05827896 49 103 142
-0.10729744 -0.26795396 -0.00373833 69 55 129
0.00367248 0.24667129 0.14867732 32 163 134
0.17994554 -0.09986414 -0.00068449 68 57 131
-0.19558641 0.01161476 -0.00452918 69 53 129
-0.08401390 0.17192210 -0.00323939 69 55 129
-0.08107385 0.21921635 0.09241627 39 126 142
-0.03756331 0.00168902 0.02818363 60 80 139
0.05943418 -0.24391849 -0.00190802 69 56 130
0.14025970 0.23580199 -0.00079449 68 57 131
-0.16301700 0.10799427 -0.00408797 69 55 129
0.03707141 0.02164318 0.05826663 49 103 142
-0.10851339 0.02017463 -0.00362062 69 55 129
0.05876273 0.23613732 0.10820024 35 136 142
0.02275521 0.16227004 0.03466380 57 85 140
-0.01266589 0.09073092 0.03760082 56 88 140
0.03711039 0.07973707 -0.00193943 69 56 130
0.02622002 -0.08817860 0.05183619 51 98 141
0.03165501 -0.00807538 0.06797418 46 110 142
-0.05462262 0.17187785 0.03614549 57 86 140
-0.14035639 -0.39574519 -0.00417144 69 55 129
-0.01258823 -0.00179434 0.04397583 54 93 141
0.02619845 -0.08807240 0.07507280 44 114 142
-0.07625418 0.21408844 0.10572663 36 134 142
0.05217917 0.07456531 0.05836618 49 103 142
0.19478405 0.09977546 -0.00035515 68 57 131
0.05848346 0.23465070 0.07755695 44 115 142
0.01509414 0.16062607 0.04673837 53 95 141
-0.08043221 0.25463486 0.11640373 33 142 141
0.05912275 0.23545930 0.12402137 32 146 140
0.01202378 -0.09378226 -0.00229881 69 56 130
-0.05054728 0.23605995 0.09187221 39 126 142
-0.15680599 -0.19584274 -0.00420024 69 55 129
-0.05332080 0.18814576 0.06010880 49 104 142
0.12399437 0.24388152 -0.00092365 68 57 131
-0.02570975 0.27552235 0.17469168 47 180 124
0.04404525 0.22125421 0.11481700 34 141 141
-0.04961966 0.24364622 0.12304753 32 146 140
0.01215192 -0.35585487 -0.00252012 69 56 130
0.02832925 0.18936804 0.07419626 44 113 142
-0.01362438 -0.00179939 0.01220613 65 68 135
-0.07482636 0.24171215 0.12944250 31 150 139
0.00570023 0.28464055 0.11953710 33 144 141
-0.01182904 0.25483298 0.12464764 32 147 140
-0.08442070 0.32400423 -0.00309811 69 55 129
0.00194259 -0.37690639 -0.00271175 69 56 130
0.09148696 0.00616225 0.01208971 65 68 135
-0.06022599 0.24535534 0.11472636 34 141 141
-0.06565215 0.26087564 0.10912128 35 137 142
-0.12390922 0.08399592 -0.00369531 69 55 129
-0.07564715 0.05686738 -0.00325527 69 55 129
0.07159415 0.07164486 0.03569773 57 86 140
-0.05630682 0.15585083 0.02911416 59 81 139
0.17982693 0.01234069 -0.00044870 68 57 131
-0.11321688 0.34292781 -0.00318640 69 55 129
0.03304626 -0.36045721 -0.00241666 69 56 130
-0.00473828 0.07614217 0.03774500 56 88 140
-0.03794355 0.25412941 0.13670461 30 155 138
-0.06565617 0.16611369 0.04965629 52 97 141
-0.01710570 0.09587770 -0.00269774 69 56 130
0.03500536 0.17370974 0.05909042 49 103 142
0.10456695 0.05385107 0.01998605 62 74 137
0.09002347 0.27287403 -0.00128902 68 57 131
-0.00231800 0.26499632 0.16700220 41 175 127
0.10254091 0.04384569 -0.00105725 68 57 131
0.17995875 0.18808866 -0.00036075 68 57 131
-0.14904383 0.36960608 -0.00376337 69 55 129
-0.00243159 0.05457711 0.03588593 57 86 140
0.05742176 0.24778217 0.12838694 31 149 139
-0.00441404 -0.10811232 -0.00255185 69 56 130
-0.11174824 0.06868757 -0.00346245 69 55 129
0.03161893 -0.05382404 0.01210694 65 68 135
-0.08627301 0.20092803 -0.00299737 69 55 129
-0.00441305 0.09444443 -0.00237378 69 56 130
0.18441424 -0.28055692 -0.00049159 68 57 131
-0.19580987 0.28427628 -0.00429642 69 53 129
0.07271075 0.28041950 -0.00147408 69 56 130
-0.03296477 0.26619154 0.12322273 32 146 140
0.03102084 -0.06035111 -0.00148009 69 56 130
0.06782056 -0.33204940 -0.00189090 69 56 130
-0.13008997 0.21534947 -0.00363062 69 55 129
0.03484058 0.25699982 0.12691493 31 148 140
0.02547387 0.17320395 0.02922120 59 81 139
0.03066126 -0.05990608 0.05197968 51 98 141
-0.10737196 -0.20412296 -0.00367168 69 55 129
0.00896083 0.27010515 0.16160946 37 172 130
-0.05116707 0.23286243 0.07988736 43 117 142
0.01538236 0.17297627 0.05876745 49 103 142
-0.07033029 0.20231256 0.07953043 43 117 142
-0.07146323 0.27043146 0.13636367 30 155 138
0.03318276 0.25672534 0.14433612 31 161 136
-0.08004951 0.18838543 0.07135618 45 112 142
0.18271707 0.10187872 0.00002088 68 58 131
-0.03664577 0.25429764 0.15137474 33 165 133
-0.00331702 -0.15616424 -0.00255630 69 56 130
-0.04410226 -0.38022888 -0.00309986 69 55 129
-0.10751706 0.14004214 -0.00347999 69 55 129
-0.01934088 0.21987304 -0.00248570 69 56 130
0.05113602 0.07702994 0.01160741 65 68 135
-0.12472830 -0.29185319 -0.00395281 69 55 129
-0.02086988 0.14794771 -0.00255657 69 56 130
-0.06780798 0.22221692 0.11377833 34 140 141
0.07695249 0.07093107 -0.00140670 68 57 131
0.09747214 0.02792191 0.01202724 65 68 135
-0.13203806 -0.34769857 -0.00407904 69 55 129
0.18008021 0.11892915 0.00000331 68 58 131
-0.11544237 -0.13999955 -0.00375548 69 55 129
0.02034697 -0.26821980 -0.00235644 69 56 130
-0.09873916 0.18903787 -0.00335378 69 55 129
-0.05243271 -0.36421826 -0.00331728 69 55 129
-0.18753307 0.06782507 -0.00439995 69 53 129
-0.00361681 0.23597996 -0.00229824 69 56 130
0.01961853 -0.34016410 -0.00243521 69 56 130
0.01969743 -0.00641754 0.04473870 54 93 141
0.03425159 -0.03617560 0.04416391 54 93 141
-0.01812333 0.16863233 -0.00235319 69 56 130
0.02633417 -0.08821198 0.03999940 55 90 140
-0.15541412 0.01160116 -0.00406755 69 55 129
-0.17989960 -0.28387433 -0.00453032 69 53 129
0.11587830 0.14006819 -0.00106418 68 57 131
-0.06825585 -0.12421965 -0.00313019 69 55 129
-0.01213050 -0.16401345 -0.00266084 69 56 130
0.18656716 0.23324932 -0.00022533 68 57 131
-0.05992768 -0.21217264 -0.00324572 69 55 129
-0.03569774 0.28408998 -0.00261553 69 56 130
0.06000827 0.18782093 -0.00167478 69 56 130
-0.18772677 -0.33238956 -0.00464980 69 53 129
0.09182918 -0.20397219 -0.00156019 69 56 130
0.03620588 -0.22794430 -0.00219135 69 56 130
0.01328727 0.28102329 0.13079652 31 151 139
-0.02796741 -0.01179078 0.07769961 43 116 142
0.05962490 -0.10774013 -0.00183462 69 56 130
0.13960594 -0.19595206 -0.00105159 68 57 131
-0.18790257 -0.34831157 -0.00466330 69 53 129
0.18787913 -0.08400597 -0.00028128 68 57 131
-0.18747523 0.14788000 -0.00434491 69 53 129
-0.16390693 -0.32393023 -0.00438531 69 53 129
-0.04415079 -0.30836251 -0.00315721 69 55 129
0.01187098 0.08481567 -0.00228794 69 56 130
0.19305302 0.15748236 0.00011802 68 58 131
0.01030999 -0.00518111 0.02029984 62 74 137
0.05208548 -0.30003434 -0.00205898 69 56 130
-0.15596806 0.15616839 -0.00397367 69 55 129
-0.01241383 -0.13191892 -0.00265119 69 56 130
-0.11614023 0.13221064 -0.00358643 69 55 129
-0.05971026 0.16405167 -0.00304390 69 55 129
-0.05983678 -0.33160800 -0.00323678 69 55 129
0.04374030 -0.29191855 -0.00213299 69 56 130
-0.15563202 -0.12408499 -0.00422190 69 55 129
-0.01094306 -0.00208788 0.02768525 60 80 139
0.06053828 0.05197657 0.05850193 49 103 142
0.01996879 0.19595201 -0.00207863 69 56 130
0.10796002 -0.00403825 -0.00128388 68 57 131
0.09219905 -0.25191283 -0.00158095 69 56 130
-0.00352596 0.25205752 -0.00228714 69 56 130
0.01220792 -0.23595406 -0.00241077 69 56 130
0.11598663 0.06804466 -0.00111856 68 57 131
0.14804734 -0.22799829 -0.00100002 68 57 131
-0.18070222 -0.22790863 -0.00451994 69 53 129
0.14781626 -0.08405268 -0.00093625 68 57 131
0.06022679 0.14023460 -0.00166775 69 56 130
0.02750611 0.12401877 -0.00205430 69 56 130
0.03630356 0.14793636 -0.00197146 69 56 130
-0.02744063 -0.38811991 -0.00297846 69 55 129
0.00320242 -0.00396095 0.06836742 46 110 142
0.02768033 0.10781082 -0.00203683 69 56 130
-0.03554154 -0.18018298 -0.00291346 69 55 129
0.09237425 -0.32395822 -0.00161589 69 56 130
0.03606064 0.24411631 -0.00187676 69 56 130
-0.02780211 0.06802893 0.03741228 56 88 140
-0.13127056 0.01182387 -0.00381418 69 55 129
-0.04344147 0.13189402 -0.00286237 69 55 129
-0.03600512 -0.04375665 0.07757042 44 115 142
0.05144056 0.16420978 -0.00175004 69 56 130
-0.07293046 0.22659309 0.09597036 39 128 142
-0.18722820 -0.16416775 -0.00455284 69 53 129
0.02617478 -0.08813205 0.06352732 48 106 142
0.13988183 0.09189291 -0.00089131 68 57 131
0.05188915 -0.04403450 -0.00190835 69 56 130
-0.00403866 -0.00299593 0.05179194 51 98 141
-0.07593177 0.18015024 -0.00322308 69 55 129
0.09981768 -0.17190425 -0.00145629 69 56 130
0.17185822 -0.01979383 -0.00055088 68 57 131
0.16402000 -0.21217903 -0.00091877 68 57 131
0.15596823 0.00373419 -0.00082805 68 57 131
-0.18018079 -0.38019836 -0.00459734 69 53 129
-0.01212169 -0.06800834 0.07774024 43 116 142
0.04383500 -0.15590720 -0.00207434 69 56 130
-0.12380200 0.11628751 -0.00365878 69 55 129
0.14768709 -0.25210035 -0.00098937 68 57 131
-0.18032670 -0.39548567 -0.00459818 69 53 129
-0.15580432 0.08389062 -0.00407635 69 55 129
0.09961111 0.03590634 0.02004577 62 74 137
-0.17150369 -0.29212645 -0.00443727 69 53 129
-0.18792108 0.13188176 -0.00436014 69 53 129
0.03610417 0.13203390 -0.00196385 69 56 130
-0.04368523 0.11605118 -0.00284917 69 55 129
0.04384764 0.21191852 -0.00181591 69 56 130
-0.06785518 -0.29206437 -0.00334311 69 55 129
0.07614692 0.25203410 -0.00143664 69 56 130
-0.02812783 -0.11605056 -0.00283204 69 55 129
0.05217510 0.10797290 -0.00180573 69 56 130
-0.05177573 -0.23593290 -0.00311603 69 55 129
0.13978294 0.13207145 -0.00087263 68 57 131
0.03623855 -0.09998205 -0.00212864 69 56 130
-0.06750140 0.30003917 -0.00301473 69 55 129
0.09183440 -0.18800125 -0.00156638 69 56 130
0.01999026 -0.16381840 -0.00229288 69 56 130
-0.17993966 0.11615120 -0.00429534 69 53 129
0.03604477 -0.11589010 -0.00212212 69 56 130
-0.08857429 0.23023970 0.12127337 33 145 140
0.14006102 0.16386221 -0.00085485 68 57 131
-0.02017952 -0.22793953 -0.00281714 69 56 130
-0.05197566 -0.16395043 -0.00299580 69 55 129
0.14004852 0.10793165 -0.00084702 68 57 131
-0.16359358 -0.37978536 -0.00444149 69 53 129
0.14819793 -0.13212812 -0.00083334 68 57 131
0.09195733 0.12407260 -0.00135667 68 57 131
-0.11591592 -0.24407969 -0.00381282 69 55 129
0.15600143 0.19603409 -0.00041487 68 57 131
0.10036207 0.06798041 -0.00125941 68 57 131
-0.14857517 0.04385173 -0.00398278 69 55 129
0.02832591 -0.07596951 0.02003224 62 74 137
0.19532047 0.21138188 0.00008974 68 58 131
-0.16482244 0.05992643 -0.00413063 69 55 129
0.11626884 -0.19600990 -0.00125228 68 57 131
0.04401784 -0.27588683 -0.00213468 69 56 130
0.10806295 -0.22002703 -0.00135140 68 57 131
0.03538949 -0.02805394 0.06815487 46 110 142
0.08421810 0.15591580 -0.00137708 68 57 131
-0.02039186 -0.00063588 0.05223537 51 99 141
0.17226617 -0.14809930 -0.00046383 68 57 131
0.02837601 0.28402519 -0.00192933 69 56 130
-0.19608749 -0.32392311 -0.00477850 69 53 129
-0.03541431 -0.27593079 -0.00301622 69 55 129
0.15600806 -0.10803185 -0.00087401 68 57 131
0.16400616 -0.06008983 -0.00085525 68 57 131
-0.17237809 -0.15594307 -0.00437165 69 53 129
0.06793963 0.01995769 0.05856588 49 103 142
-0.05975839 -0.28374818 -0.00332944 69 55 129
-0.11564398 -0.31585917 -0.00388948 69 55 129
-0.15508869 0.02823921 -0.00409339 69 55 129
0.14819036 -0.16383117 -0.00081878 68 57 131
0.16385719 0.10018540 -0.00037752 68 57 131
-0.16404231 0.13254215 -0.00409640 69 55 129
-0.04389832 0.29198977 -0.00274511 69 56 130
0.08423193 0.14026070 -0.00135711 68 57 131
0.05215888 0.04426756 0.05845661 49 103 142
0.16382892 0.15603390 -0.00032263 68 57 131
0.02793407 -0.33240616 -0.00231282 69 56 130
-0.06007269 0.31600624 -0.00286571 69 55 129
0.09203919 -0.28391111 -0.00160362 69 56 130
0.15593168 -0.09210879 -0.00091325 68 57 131
0.06035523 0.26795313 -0.00161472 69 56 130
0.05210203 -0.16395260 -0.00196764 69 56 130
-0.13251151 0.05173689 -0.00381866 69 55 129
