ply
format ascii 1.0
element vertex 1024
property float x
property float y
property float z
property uchar red
property uchar green
property uchar blue
end_header
-0.19770849 -0.31418371 -0.02217039 72 38 119
0.02019038 0.26046374 0.26483089 189 223 38
0.17546402 -0.05449969 -0.02486212 72 36 117
-0.19585882 0.08473846 -0.01539084 71 45 123
0.14200839 0.25907749 -0.02522527 72 36 117
-0.07070211 -0.11570377 0.05790749 49 103 142
0.08440945 -0.25133350 -0.01283792 71 46 124
0.01744181 0.08817852 -0.01598126 71 44 122
-0.04104662 0.33853236 -0.02590241 72 35 116
-0.06564841 0.18041150 0.12342495 32 146 140
0.07947448 0.25631613 0.11954831 33 144 141
0.17229173 0.10044467 -0.01978100 72 40 120
-0.06929462 -0.24345325 -0.01814773 71 42 122
0.04838789 -0.11950014 -0.01626503 71 44 122
0.07822128 -0.00965347 0.04429998 54 93 141
-0.06396109 -0.00734472 -0.00604430 70 52 128
-0.09299103 0.15317102 -0.01357306 71 46 124
0.00751610 0.22558135 -0.02508847 72 36 117
0.04381869 0.14859156 0.08319061 42 119 142
0.17615575 -0.17812160 -0.02570459 72 35 116
-0.07849818 0.25604770 0.19456628 70 192 111
0.09175060 0.16376883 -0.01971473 72 41 121
0.00491305 -0.29825905 -0.00685287 70 52 128
-0.16417433 -0.22970791 -0.01370666 71 46 124
0.00881964 0.23952492 0.17644933 49 181 123
-0.05961021 -0.15845215 -0.04338745 71 19 101
0.05838256 0.29700750 -0.02638814 72 35 116
0.01174951 -0.20264366 -0.00981404 70 50 126
0.12404327 0.02755431 -0.02092177 72 40 120
0.00433246 -0.05289847 0.02752618 60 80 139
-0.14941707 0.00769126 -0.01020418 70 48 126
-0.03649280 0.14089468 0.05453192 50 100 142
-0.09441394 -0.32251787 -0.00718420 70 51 127
-0.06791037 0.07583231 -0.01253670 71 47 125
0.17217657 0.18012595 -0.02155330 72 38 119
0.09114380 -0.05187250 -0.01998764 72 40 120
0.02688782 0.01239216 -0.01426446 71 45 123
0.08419818 -0.10378805 0.04853362 52 96 141
0.13166499 -0.11541613 -0.01387050 71 46 124
0.00346152 -0.12369661 0.05065841 52 97 141
-0.02013311 0.15578444 -0.02100366 72 40 120
-0.08599440 -0.04451912 0.05176064 51 98 141
0.09185079 -0.17982443 -0.01251714 71 47 125
0.09256248 0.09223371 -0.01795930 71 42 122
-0.12130279 -0.17460507 -0.00452476 69 53 129
-0.02976048 -0.10512760 -0.00777599 70 51 127
-0.03752130 0.24152681 0.10601066 36 135 142
-0.02934464 0.00185165 0.05255789 51 99 141
0.06507504 0.19321373 0.03541084 57 86 140
0.07507452 0.22837462 -0.02852119 72 32 113
0.03915173 0.20419776 0.12579572 31 148 140
-0.13185357 0.10158579 -0.02513837 72 36 117
-0.00503697 0.28551814 -0.04375754 71 19 101
-0.01953330 0.18988077 0.08454919 42 120 142
0.17837951 0.00399357 -0.02039387 72 40 120
0.03652419 0.14780347 -0.01845259 72 41 121
-0.00936101 0.21951900 0.23827881 139 214 70
-0.02783882 0.03630845 -0.01374892 71 46 124
-0.15968864 -0.35501179 -0.02055430 72 40 120
-0.01579142 -0.03155148 -0.02029562 72 40 120
-0.04333889 -0.19595052 -0.00634821 70 52 128
-0.18036693 0.13612747 -0.01663181 71 44 122
-0.05173676 0.22773661 0.15538099 34 168 132
0.08162531 0.20787609 0.09534918 39 128 142
0.05233660 0.26513395 0.16413234 39 173 129
0.06797639 0.04382904 -0.01822206 71 42 122
0.03006558 -0.25292650 -0.00756243 70 51 127
-0.10035534 0.03561258 -0.01206772 71 47 125
0.12435107 0.20377803 -0.02061501 72 40 120
0.12087219 -0.21701172 -0.03308709 72 28 110
0.13194765 0.13200752 -0.01937653 72 41 121
-0.04526148 -0.29250428 -0.01511698 71 45 123
-0.04404701 -0.07830087 0.03278757 58 84 140
-0.19579387 0.02775701 -0.01030805 70 48 126
-0.03407592 0.25195342 -0.01498592 71 45 123
-0.01894710 -0.24443433 -0.01054420 70 48 126
0.18038628 -0.10882979 -0.01861707 72 41 121
-0.11536001 -0.22834083 -0.00993716 70 48 126
0.08321649 -0.00390501 -0.01478876 71 45 123
0.01192775 -0.15389527 -0.00751519 70 51 127
-0.02844167 0.10773242 -0.01987262 72 40 120
-0.07522057 -0.12386331 -0.01297819 71 46 124
0.17225392 0.05204413 -0.01733239 71 42 122
0.13196312 -0.02017095 -0.01959829 72 41 121
0.02241507 0.26645306 0.21711256 103 204 92
-0.15637298 0.05934731 -0.02075507 72 40 120
0.03693433 0.01079360 0.05441250 50 100 142
-0.10124554 -0.27628240 -0.00677483 70 52 128
-0.05629653 0.18406995 -0.02882910 72 32 113
-0.19381611 -0.26879415 -0.01333157 71 46 124
0.05718131 -0.21479069 -0.00753167 70 51 127
0.09967124 0.27619466 -0.02768412 72 33 115
0.08106374 -0.09105110 0.00076529 68 58 131
-0.04551066 0.14867024 0.09770060 38 130 142
-0.04836099 0.29386786 -0.01684621 71 44 122
-0.13738164 0.14481302 -0.01239641 71 47 125
0.13425435 -0.06718903 -0.01659988 71 44 122
0.05552116 0.18773441 -0.00677624 70 52 128
0.00868521 -0.08264217 -0.00370196 69 55 129
0.13584927 0.07515967 -0.01597507 71 44 122
0.13128254 -0.16385005 -0.01915235 72 41 121
0.17509340 0.22281237 -0.02479765 72 36 117
0.04889947 -0.17314607 -0.01630133 71 44 122
-0.06881738 -0.05013939 0.01345652 64 69 136
-0.01179751 0.24533211 0.14031258 31 158 137
0.09313639 -0.13149850 -0.01380962 71 46 124
0.11930540 0.24797469 0.11154038 34 139 141
-0.04388415 -0.12469811 0.02758155 60 80 139
0.04684703 0.25685704 -0.01824927 71 42 122
-0.08444525 -0.19397557 -0.00731209 70 51 127
-0.00409937 0.32200554 -0.02631836 72 35 116
0.05256230 0.10782926 -0.01848366 72 41 121
-0.08229236 0.11440436 -0.01561599 71 44 122
0.07089487 0.17703366 0.07159805 45 112 142
-0.07562950 -0.00600333 0.05376656 50 100 142
0.17245199 0.14035980 -0.01989483 72 40 120
0.06256130 0.23079054 0.14451374 31 161 136
0.02805292 0.22853075 0.22945367 124 210 80
0.06933329 -0.05503138 0.01109629 65 66 135
-0.02641662 -0.16570587 -0.02218160 72 38 119
0.01811007 0.05039956 -0.01554491 71 44 122
-0.08858372 0.23338678 0.16129047 37 172 130
-0.03071864 -0.04274239 0.01225390 65 68 135
-0.01638466 0.25336480 0.26204866 184 222 41
0.15802979 -0.08245243 -0.04107916 72 20 103
-0.10792381 0.07595593 -0.01452224 71 45 123
0.00362925 0.12381569 -0.01816416 71 42 122
0.02285149 0.27398831 0.18230572 56 185 119
0.05265862 0.17869125 0.10209048 37 132 142
-0.05153788 0.13969752 -0.01656796 71 44 122
-0.04459339 0.21186595 0.12408634 32 146 140
-0.00741050 0.15791753 0.06529658 47 108 142
0.01247363 0.26478851 -0.01947355 72 41 121
0.16364479 -0.13945866 -0.01413231 71 45 123
-0.06486434 -0.16521272 -0.00941841 70 50 126
-0.01169454 0.06832264 -0.01520603 71 45 123
0.10876524 0.23629051 -0.02604463 72 35 116
-0.07567690 0.20469765 0.14707787 31 162 135
-0.04385458 -0.13748319 -0.01387175 71 46 124
-0.19735771 -0.23553441 -0.01944504 72 41 121
0.09134093 -0.07076728 0.04569795 53 94 141
0.07635423 0.13177864 -0.01895802 72 41 121
0.00986929 0.16956680 -0.01457393 71 45 123
0.00384556 0.00415203 0.05002797 52 97 141
-0.06794775 0.02800774 -0.01164466 71 47 125
0.13996103 0.17191470 -0.02302380 72 37 118
-0.13138777 -0.25706050 -0.01468179 71 45 123
0.09997653 0.05192370 -0.01801536 71 42 122
-0.16348098 0.09279809 -0.02206879 72 38 119
0.05978578 0.07609087 -0.01685881 71 44 122
-0.02288976 -0.27179599 -0.02763243 72 33 115
-0.10047897 -0.02831048 0.02772239 60 80 139
0.03023338 0.23672393 0.15232544 33 165 133
-0.00366301 0.25409624 0.20248803 82 197 105
0.09199005 -0.21958311 -0.01888047 72 41 121
0.09294033 0.19645435 -0.01978895 72 40 120
-0.01296437 -0.08329161 0.02603498 60 79 138
-0.11232209 0.00591852 -0.01096182 70 48 126
-0.02906534 0.24325857 0.17166147 45 178 125
-0.13210711 0.03624013 -0.00960004 70 50 126
-0.07148847 -0.27506799 -0.01788345 71 42 122
-0.06029241 -0.10180014 0.01454464 64 70 136
0.10855722 -0.08400010 -0.01259309 71 47 125
-0.00386069 0.01386484 -0.01329464 71 46 124
0.03762768 0.22733007 -0.02095273 72 40 120
-0.03929279 0.18035482 0.10563563 36 134 142
0.12844670 -0.19386035 -0.01509243 71 45 123
0.14194405 0.22764212 -0.02636001 72 35 116
0.00473251 -0.05158939 -0.00261088 69 56 130
0.07070117 -0.03217874 -0.00843237 70 51 127
0.06829473 -0.14791115 -0.00988553 70 48 126
0.14871752 0.00506396 -0.01619287 71 44 122
0.07555904 0.21157409 0.12425344 32 147 140
-0.06238455 -0.01378673 0.02856109 59 81 139
0.09832367 0.23208980 0.09465888 39 128 142
-0.04334941 -0.22807400 -0.01074353 70 48 126
-0.15340838 0.12105663 -0.01664561 71 44 122
0.06586431 0.21022186 0.07116421 45 112 142
-0.05184760 -0.03625604 -0.00646239 70 52 128
0.10034141 -0.08436098 0.02183061 62 76 138
0.16379367 -0.02858297 -0.01966817 72 41 121
0.04247139 0.25697187 0.23559313 134 213 73
-0.02810626 -0.12937716 0.05129769 51 98 141
-0.08733785 -0.29869145 -0.02193948 72 38 119
0.00649643 0.24143460 0.24790478 157 217 59
-0.05132343 0.05249798 -0.01218109 71 47 125
-0.01758979 0.27537492 -0.02027535 72 40 120
0.10833815 0.11608428 -0.01845934 72 41 121
-0.01597637 -0.20899574 -0.01018488 70 48 126
0.06035744 0.01268146 -0.01219236 71 47 125
-0.10823517 0.12521464 -0.01852821 72 41 121
0.07320755 0.25835353 -0.02803733 72 33 115
0.02757328 -0.28215834 -0.01063472 70 48 126
-0.03703259 0.16436394 0.07606506 44 114 142
-0.03200275 0.21631002 0.09518474 39 128 142
-0.18385321 -0.28870469 -0.03021853 72 31 112
-0.03561812 -0.01397298 -0.01054717 70 48 126
0.01098251 -0.23315093 -0.01212420 71 47 125
-0.00455378 -0.18020605 -0.01240462 71 47 125
0.15044776 -0.10872064 -0.03331185 72 28 110
-0.01723325 -0.13038264 -0.01736267 71 42 122
-0.04392686 0.01394924 -0.01188057 71 47 125
-0.04287722 -0.26082987 -0.01220399 71 47 125
0.15543199 0.20366478 -0.02529080 72 36 117
-0.18774360 0.05854436 -0.01488023 71 45 123
-0.08082774 0.23083194 0.20478724 86 198 103
0.06032451 0.16502997 -0.02116039 72 40 120
-0.09432508 -0.24531679 -0.00642017 70 52 128
0.17141035 0.24958165 -0.02486054 72 36 117
-0.04225289 0.24292225 0.13250457 31 152 139
-0.18172820 0.00641397 -0.01841727 72 41 121
0.02837738 -0.13343805 -0.00372017 69 55 129
0.07285614 0.26010644 0.14813988 31 162 135
-0.03490583 0.12719761 0.07715701 44 115 142
0.10839953 0.00396874 -0.01719012 71 42 122
-0.08406331 -0.22026978 -0.00987617 70 50 126
-0.13744390 0.07758253 -0.01578820 71 44 122
0.09973997 -0.02808393 -0.01282629 71 46 124
-0.19633187 0.11529338 -0.01679806 71 44 122
0.13833873 -0.04411970 -0.02833809 72 32 113
-0.02006494 0.30144954 -0.02469909 72 36 117
-0.05367070 0.11267747 -0.01552790 71 45 123
0.00158006 -0.10634048 -0.01154899 71 47 125
-0.03612146 0.08375252 -0.01379546 71 46 124
-0.06946287 0.25072065 0.16341987 38 173 129
-0.10795859 -0.20378011 -0.00326013 69 55 129
-0.17171063 0.03677389 -0.01223898 71 47 125
0.11687753 -0.14024115 -0.01875547 72 41 121
-0.04178643 0.31379780 -0.03298530 72 28 110
0.05986585 -0.24403694 -0.01044077 70 48 126
0.13194381 -0.09163893 -0.02841265 72 32 113
0.08511920 0.02495549 -0.01573771 71 44 122
0.02769425 0.11585855 -0.01558972 71 44 122
0.05661518 0.15963659 0.05968369 49 104 142
0.16361542 0.07582609 -0.02014017 72 40 120
0.11596276 0.15606041 -0.01879245 72 41 121
0.13891391 0.10000817 -0.02038480 72 40 120
0.14833699 0.04382982 -0.01985204 72 40 120
-0.03559415 -0.09740227 0.01834130 63 72 137
-0.13938113 -0.22069471 -0.01069630 70 48 126
-0.08034927 -0.02931909 0.00533042 67 62 133
-0.17073141 -0.25351617 -0.01842269 72 41 121
0.03591672 -0.22807781 -0.00872573 70 50 126
-0.05059348 -0.09988089 0.04372926 54 92 141
0.06695130 0.20382918 -0.02215978 72 38 119
0.15432291 -0.18050550 -0.01383577 71 46 124
-0.04375146 0.16374104 -0.01972096 72 41 121
0.03560324 -0.19562288 -0.01144483 71 47 125
0.04464058 0.05226006 -0.01667859 71 44 122
-0.07605436 0.05172616 -0.01448029 71 45 123
0.10056801 -0.10789207 -0.01210150 71 47 125
0.16418830 0.02412171 -0.01571229 71 44 122
-0.08880167 -0.05091842 0.02755910 60 80 139
0.12432299 0.05236296 -0.01987504 72 40 120
0.01065176 -0.07578506 0.03300188 58 84 140
-0.00359111 0.10025109 -0.01795388 71 42 122
-0.10750248 0.09969751 -0.01973885 72 41 121
0.03659885 0.30557486 -0.02008437 72 40 120
0.09998447 -0.15580668 -0.01136397 71 47 125
-0.02859708 0.13182989 -0.02093296 72 40 120
-0.05389738 -0.12541388 0.00567166 66 63 133
0.11518563 -0.05151655 -0.01934648 72 41 121
0.00979589 0.24924323 0.15061623 32 164 134
0.11651160 0.09181041 -0.01802568 71 42 122
0.06588141 0.01031735 0.04874540 52 96 141
-0.05145094 -0.00872941 0.04918538 52 96 141
0.11617416 0.17989820 -0.01871289 72 41 121
0.07333270 -0.06912248 -0.00763701 70 51 127
0.07561740 0.23601745 0.10783409 35 136 142
-0.06601717 -0.12176553 0.03544186 57 86 140
0.08488274 0.06998412 -0.01576120 71 44 122
0.05817744 0.19910568 0.11274035 34 139 141
0.14065881 -0.13986741 -0.01910350 72 41 121
0.17999357 -0.15573497 -0.01870694 72 41 121
-0.05153788 -0.13079610 0.05223390 51 98 141
0.07216997 -0.19687322 -0.00795192 70 51 127
0.15585385 0.12398934 -0.01949118 72 41 121
-0.06015401 -0.21190926 -0.00651507 70 52 128
0.06813021 -0.10910131 -0.01017200 70 48 126
-0.00408444 0.04404028 -0.01470555 71 45 123
0.02596833 0.25520250 0.16941769 44 177 126
-0.07022169 -0.31047785 -0.01221512 71 47 125
0.07633656 0.28365505 -0.02149589 72 38 119
0.03931592 0.16892265 -0.01008645 70 48 126
0.14799832 0.14817727 -0.02084735 72 40 120
-0.08391766 0.09184027 -0.01646774 71 44 122
0.07599355 0.18076830 -0.02547082 72 35 116
0.03576793 -0.15584733 -0.01002854 70 48 126
0.00469860 0.14796025 -0.01871634 72 41 121
-0.05788316 0.16377227 0.11031701 35 138 141
0.01925890 0.24534281 -0.02861355 72 32 113
0.07654059 0.10801867 -0.01725782 71 42 122
0.03608758 0.07564494 -0.01567625 71 44 122
-0.09165529 0.01413477 -0.01396447 71 46 124
0.11270788 -0.17630590 -0.02091227 72 40 120
0.10612450 -0.23472418 -0.01050274 70 48 126
0.11940682 0.27038169 -0.01898861 72 41 121
-0.05173717 -0.07948168 0.01187849 65 68 135
-0.01165731 0.25393867 -0.01979417 72 40 120
-0.09520930 -0.17457004 -0.00880012 70 50 126
0.10059437 0.13998964 -0.01916264 72 41 121
0.05204068 0.13189110 -0.01918598 72 41 121
-0.04624458 0.24904238 0.15814950 36 170 131
0.05767994 0.23420951 -0.01455427 71 45 123
0.06896047 -0.17280860 -0.00703538 70 52 128
-0.07516188 0.14043656 -0.01611836 71 44 122
-0.04477623 -0.17508811 -0.01438681 71 45 123
-0.02052435 -0.12550093 0.03105535 59 82 139
0.02023760 -0.17998737 -0.01042190 70 48 126
0.09796251 0.21748737 -0.02283070 72 37 118
-0.13067392 0.12222163 -0.01836629 72 41 121
0.06355962 -0.00577905 -0.00131708 68 57 131
0.05635339 0.16692866 0.08398429 42 120 142
-0.01651376 -0.09373178 0.00493066 67 62 133
0.01214172 0.02814028 -0.01472285 71 45 123
-0.07668585 -0.25794888 -0.03208704 72 29 111
0.08738436 -0.10137634 0.02185954 62 76 138
-0.12615386 0.05952296 -0.01633503 71 44 122
-0.02501319 0.32633516 -0.01908620 72 41 121
-0.11623693 0.14518508 -0.01454359 71 45 123
0.04273353 0.02614221 -0.01730815 71 42 122
0.15497619 -0.05841620 -0.02830283 72 32 113
-0.17387545 0.07452413 -0.02326208 72 37 118
0.00072642 0.30185875 -0.02992440 72 31 112
0.09198016 0.25209737 -0.02121159 72 38 119
0.10464210 -0.19550940 -0.01994969 72 40 120
-0.19387102 -0.29158151 -0.01220076 71 47 125
0.00247753 -0.06757861 0.01298695 64 69 136
0.01455304 0.22239296 0.24387072 149 216 64
0.02777624 0.24386947 0.24324708 149 216 64
0.09694920 0.24160600 0.11288936 34 139 141
0.12675644 0.24299081 -0.01868491 72 41 121
0.05893068 0.27341849 -0.02519610 72 36 117
-0.01925105 -0.05636512 0.02240482 62 76 138
-0.04020214 0.27513310 -0.01772767 71 42 122
0.09103950 -0.07481362 -0.01735456 71 42 122
-0.09614980 -0.30271077 -0.00303546 69 55 129
-0.17305355 0.11607514 -0.01544232 71 45 123
-0.08982571 -0.02023649 0.05123108 51 98 141
0.07185192 0.00215403 0.02912404 59 81 139
-0.08926453 0.24203695 0.17939857 53 183 121
-0.14971429 -0.24256110 -0.01895344 72 41 121
0.06892278 0.19565649 0.08439431 42 120 142
-0.01119560 -0.04211393 0.00849354 66 65 134
0.16040845 -0.11319244 -0.01683235 71 44 122
0.02030546 0.26494312 0.24568193 155 217 60
0.04952132 0.21582283 0.13778585 30 156 137
0.03873421 0.28609994 -0.01897557 72 41 121
0.05559696 0.25053501 0.15159443 33 165 133
-0.05762473 0.20130293 0.13399731 31 153 138
-0.01139033 0.23590913 0.25297689 168 219 52
0.01717029 0.26322794 0.19878191 76 194 108
-0.02990727 0.24496056 0.14718765 31 162 135
-0.01968469 0.17244139 0.06832566 46 110 142
0.03974164 0.16516328 0.09754133 38 130 142
-0.00925251 0.24163604 0.17035025 44 177 126
-0.04583764 0.18955843 0.12113316 33 145 140
0.07648902 -0.22794260 -0.01135788 71 47 125
-0.06056502 -0.18761709 -0.00651392 70 52 128
0.00840148 0.07140683 -0.01595110 71 44 122
0.03929913 0.18862824 0.11484253 34 141 141
0.17678815 0.16169845 -0.02253048 72 38 119
-0.08282235 -0.02140034 0.02821292 60 80 139
-0.18042488 -0.26745021 -0.02686097 72 33 115
-0.05193894 -0.11517698 -0.01009461 70 48 126
-0.01004211 -0.22791663 -0.00945650 70 50 126
-0.03494109 0.16409090 0.09472481 39 128 142
0.07552180 0.23590389 0.13193230 31 152 139
0.08545929 -0.08681024 0.03792679 56 88 140
0.16348401 -0.16420935 -0.02143949 72 38 119
0.00550959 -0.08624168 0.01832305 63 72 137
-0.02892492 -0.03864580 -0.00591067 70 52 128
-0.05255062 -0.15589184 -0.01993358 72 40 120
-0.09272451 0.06010171 -0.01512690 71 45 123
-0.18136428 -0.30484849 -0.02129894 72 38 119
0.07408479 -0.05045334 -0.00625519 70 52 128
-0.02174997 -0.28902668 -0.02098300 72 40 120
-0.07570785 0.21950050 0.15814948 36 170 131
0.06590043 -0.12964091 -0.00849522 70 50 126
-0.03537399 0.19601941 0.09167636 40 125 142
-0.02756322 -0.17981501 -0.00987410 70 50 126
-0.04001504 0.22398166 0.11101195 35 138 141
0.15600148 -0.01194154 -0.01871775 72 41 121
0.06762523 0.14796238 -0.01912788 72 41 121
-0.13149613 0.01168319 -0.01116477 70 48 126
-0.03806062 0.14489250 0.08085179 42 118 142
-0.06764439 0.09991295 -0.01410847 71 46 124
0.08344424 -0.11586045 -0.01760620 71 42 122
0.03634548 0.24476948 0.22339332 115 208 86
0.17421354 0.19794016 -0.02522874 72 36 117
-0.05211974 -0.05274611 0.02044841 62 74 137
0.07281838 0.19159423 0.10179389 37 132 142
-0.04118714 0.20398518 0.10794098 35 136 142
-0.02806672 0.06026081 -0.01495103 71 45 123
-0.06091831 0.21544369 0.14552538 31 161 135
-0.14834271 0.04335643 -0.01375314 71 46 124
0.15807466 0.23554721 -0.02384663 72 37 118
0.11738053 0.22064862 -0.02301453 72 37 118
0.01977220 0.13200441 -0.01791569 71 42 122
-0.18650420 0.10010991 -0.01726327 71 42 122
0.10767625 0.06822391 -0.01935303 72 41 121
-0.03414546 -0.12313175 -0.00885992 70 50 126
-0.01923464 0.09182746 -0.01497666 71 45 123
0.03628488 0.10012811 -0.01809327 71 42 122
-0.05243487 -0.27609298 -0.01324734 71 46 124
-0.09115486 0.13043655 -0.01634213 71 44 122
0.11442326 -0.01282572 -0.01499930 71 45 123
-0.16404600 0.02059232 -0.01260504 71 47 125
0.10834035 0.03609930 -0.01810228 71 42 122
0.06805319 0.09180845 -0.01903957 72 41 121
-0.11815903 0.11369724 -0.02795662 72 33 115
0.04399499 -0.13997164 -0.00981728 70 50 126
-0.01213958 0.13990121 -0.01914360 72 41 121
0.04259157 0.00690366 -0.00773793 70 51 127
0.15625049 0.09210686 -0.02011721 72 40 120
-0.06796128 -0.22793537 -0.00897978 70 50 126
0.05333928 -0.19741811 -0.01095269 70 48 126
0.15637594 0.16389550 -0.01999428 72 40 120
-0.06076704 0.16107832 -0.01517349 71 45 123
-0.15564996 0.13797517 -0.01158350 71 47 125
0.13211551 0.18775094 -0.01959892 72 41 121
-0.00270430 0.23877218 0.19351393 70 192 111
0.13254765 0.01216481 -0.01845423 72 41 121
0.09217444 0.12381211 -0.01885724 72 41 121
-0.01197013 -0.00375578 0.05105628 51 98 141
0.02029005 0.15598734 -0.02101420 72 40 120
0.08441696 -0.16343056 -0.01483271 71 45 123
0.12475175 -0.03687576 -0.01681247 71 44 122
0.09196389 -0.09218510 -0.01426582 71 45 123
-0.05219501 0.09168398 -0.01199023 71 47 125
-0.03687365 0.18021780 0.08400939 42 120 142
-0.11650319 0.02818723 -0.00887580 70 50 126
0.10858097 -0.12395859 -0.01018993 70 48 126
-0.01196474 0.11590789 -0.01651496 71 44 122
-0.02306006 0.22788067 0.10487881 36 134 142
0.02013833 -0.21949814 -0.00602547 70 52 128
-0.13180885 -0.23611706 -0.01414102 71 45 123
0.11586072 -0.09985060 -0.01495320 71 45 123
-0.02935864 0.15746497 0.06192317 48 105 142
-0.06667326 0.12514378 -0.01642015 71 44 122
-0.07438677 0.18959284 0.13836096 30 157 137
0.15659110 0.05971253 -0.01862241 72 41 121
-0.03606673 0.14776328 -0.01766315 71 42 122
0.17905365 0.03599140 -0.01862179 72 41 121
-0.03637769 -0.21205883 -0.01024566 70 48 126
-0.14807419 0.10030068 -0.01868872 72 41 121
0.17480811 -0.12624343 -0.01636011 71 44 122
-0.07603524 -0.17546530 -0.00081917 68 57 131
0.01191514 0.10799532 -0.01975065 72 41 121
0.02823584 0.03578729 -0.01782585 71 42 122
0.14972831 -0.07572822 -0.02736958 72 33 115
-0.01994496 0.02035953 -0.01382977 71 46 124
0.17923243 0.06792122 -0.01768068 71 42 122
0.10980173 -0.22011714 -0.01909766 72 41 121
0.12372507 0.10806561 -0.01825340 71 42 122
-0.11076985 -0.24993660 -0.00898144 70 50 126
-0.02383268 0.24563773 0.12795089 31 149 139
0.17771146 0.12395602 -0.02038581 72 40 120
-0.12281406 -0.21231532 -0.00489967 69 53 129
-0.04438031 0.06820119 -0.01307326 71 46 124
0.14604352 -0.12378588 -0.02153973 72 38 119
0.06557051 0.20238437 -0.00515496 69 53 129
0.14786717 -0.15468949 -0.01478821 71 45 123
0.11573417 -0.06870112 -0.01464636 71 45 123
-0.05534261 -0.30411506 -0.00695670 70 52 128
0.15648739 0.18626629 -0.02339426 72 37 118
0.17771588 -0.01924667 -0.02179746 72 38 119
-0.04986309 -0.09276833 0.02643356 60 79 138
0.13786723 -0.17921673 -0.01714990 71 42 122
-0.00347614 0.08323369 -0.01574734 71 44 122
0.08501384 0.04471326 -0.01577052 71 44 122
-0.19689105 0.04439225 -0.01198775 71 47 125
0.00421826 0.26085776 0.25982076 181 222 43
0.08332820 0.21057144 -0.01855047 72 41 121
0.06826454 0.06010488 -0.01437467 71 45 123
0.06070799 0.02855630 -0.01739844 71 42 122
-0.04553491 0.22783025 0.13986653 31 158 137
0.01533070 0.25730902 0.18332511 56 185 119
-0.01248309 -0.12346382 0.04619675 53 94 141
-0.05223574 0.03598024 -0.01238645 71 47 125
0.07364214 0.24364860 0.14667936 31 161 135
-0.01259348 -0.11464964 -0.01339685 71 46 124
-0.05186652 -0.01989933 -0.00437669 69 53 129
0.04633056 0.23345287 0.14372286 31 160 136
-0.06625777 -0.29021305 -0.01411931 71 45 123
-0.01835924 -0.01568048 -0.01683521 71 44 122
0.08393272 -0.20531137 -0.01769051 71 42 122
-0.15572810 0.07567447 -0.02241943 72 38 119
-0.19650580 0.13347341 -0.01544811 71 45 123
0.08399019 0.14814731 -0.01897729 72 41 121
-0.08444529 0.07552170 -0.01555578 71 44 122
-0.08358090 -0.03582578 0.02054946 62 74 137
-0.17966077 -0.23495074 -0.01395151 71 46 124
-0.05048853 0.23599786 0.11458623 34 141 141
0.13214241 0.15587164 -0.02094681 72 40 120
-0.12302499 0.08512280 -0.01700223 71 42 122
-0.09642535 -0.26091316 -0.00226190 69 56 130
0.17729057 -0.03723800 -0.02245728 72 38 119
-0.10822254 -0.18773332 -0.00566144 70 52 128
0.14051437 0.11607856 -0.01900152 72 41 121
0.09014465 0.23305582 -0.02497489 72 36 117
-0.06884152 -0.13168173 0.05622835 50 101 142
-0.02667063 -0.23095167 -0.00607421 70 52 128
-0.08421735 0.03594999 -0.01256172 71 47 125
0.17872873 0.08402945 -0.01867244 72 41 121
0.08387754 -0.01986515 -0.01248163 71 47 125
0.14790390 0.02772918 -0.01970152 72 41 121
0.01329696 0.25433910 0.21171787 94 201 98
-0.07765456 0.25810796 0.17863257 52 182 121
0.13803412 0.21204497 -0.02238595 72 38 119
0.09427882 0.25733992 0.11106312 35 138 141
-0.08441187 -0.28385383 -0.01433885 71 45 123
-0.06620492 -0.10089001 0.05379880 50 100 142
0.07574202 0.22003427 0.10841303 35 136 142
-0.03625175 -0.05095270 0.02480731 61 78 138
0.10855754 0.20245475 -0.02261988 72 37 118
-0.01081600 -0.16551787 -0.01285528 71 46 124
0.03570243 0.26761100 0.17192692 45 178 125
0.15689059 -0.04293269 -0.01850273 72 41 121
0.11601751 0.13211536 -0.02000729 72 40 120
0.06091737 0.20740095 0.12894931 31 150 139
0.14799018 -0.02732312 -0.01843547 72 41 121
0.03612155 0.13198794 -0.01689289 71 44 122
-0.19679168 0.00633761 -0.01333850 71 46 124
0.13314112 -0.10855047 -0.02812616 72 33 115
0.06704231 0.24381208 -0.02958078 72 32 113
0.10035089 0.18004671 -0.01986666 72 40 120
0.08232037 -0.14527713 -0.01680848 71 44 122
0.12984532 -0.00476353 -0.02253394 72 38 119
0.04410817 -0.24365494 -0.00911586 70 50 126
0.09222142 0.10800542 -0.01930230 72 41 121
0.05157088 -0.15614371 -0.01049880 70 48 126
0.14755902 -0.09245932 -0.03075021 72 31 112
-0.00379405 -0.19575149 -0.00964220 70 50 126
-0.03706735 -0.27680734 -0.02277246 72 37 118
-0.10224682 -0.21790448 -0.00744373 70 51 127
0.11648621 -0.15599787 -0.01971114 72 41 121
-0.06777182 -0.03548428 -0.00193604 69 56 130
0.10804495 0.02032872 -0.01781375 71 42 122
0.10225898 0.25604349 -0.03246817 72 29 111
-0.04389185 0.12395946 -0.02046424 72 40 120
0.14036661 0.06039337 -0.01892287 72 41 121
-0.02942630 -0.25871149 -0.02005951 72 40 120
-0.18489546 -0.25503385 -0.01178265 71 47 125
0.15636614 0.10778573 -0.01947101 72 41 121
0.03595997 -0.21264188 -0.01129387 70 48 126
0.07591735 0.16401076 -0.02157905 72 38 119
-0.03424093 -0.24732699 -0.00916475 70 50 126
0.05221524 0.09222170 -0.01781934 71 42 122
-0.05863719 -0.12925306 -0.00915189 70 50 126
-0.03686146 0.29987943 -0.02796653 72 33 115
-0.00376553 0.16316786 -0.01856153 72 41 121
-0.17159955 0.05962996 -0.01749901 71 42 122
-0.06873216 0.23652039 0.15712729 35 169 131
-0.05954789 -0.11624852 0.02016818 62 74 137
0.05143222 0.14817296 0.06877339 46 110 142
-0.14748336 0.02799773 -0.01171465 71 47 125
-0.01024528 -0.09493314 -0.00918916 70 50 126
0.09312161 0.01179300 -0.01731948 71 42 122
-0.02672752 -0.07972899 0.01995808 62 74 137
0.05181879 0.14820307 -0.02038284 72 40 120
-0.06063390 -0.10738437 0.03446295 57 85 140
0.07796153 0.01137281 -0.01479935 71 45 123
-0.04614866 -0.16685349 -0.02853963 72 32 113
0.17741126 0.02083515 -0.02271994 72 37 118
0.01308199 -0.28391764 -0.00606910 70 52 128
-0.05917491 0.01344698 -0.01081378 70 48 126
-0.05351999 -0.25249693 -0.01929101 72 41 121
-0.04511166 -0.04516272 0.00782616 66 64 134
0.07187150 0.25498646 0.13270122 31 152 139
-0.14153023 0.06237444 -0.02243465 72 38 119
0.15641601 0.25164971 -0.02325569 72 37 118
-0.00342543 -0.04062671 -0.00925438 70 50 126
-0.10729603 0.06042515 -0.01084829 70 48 126
0.03554738 0.25085261 0.15849654 36 170 131
0.10428762 0.24783546 0.10118306 37 131 142
0.00385032 -0.22003882 -0.00953096 70 50 126
-0.07395156 -0.01485586 0.00251638 68 59 132
0.06360843 0.18895532 -0.02250303 72 38 119
0.02889532 0.06039076 -0.01890123 72 41 121
-0.18040141 0.02094027 -0.01460798 71 45 123
0.12336196 -0.08456358 -0.01527847 71 45 123
0.03459658 -0.18080188 -0.01480761 71 45 123
0.01238705 0.01348073 -0.01055294 70 48 126
-0.02569963 -0.19795030 -0.00742944 70 51 127
-0.03125402 0.16890119 -0.02598602 72 35 116
0.18009225 -0.13996044 -0.01867091 72 41 121
0.06954865 0.21940100 0.13538444 31 154 138
-0.04662958 0.13588895 0.08901802 40 124 142
-0.00474522 0.28469592 -0.02891811 72 32 113
0.09144340 0.22028215 0.10044342 37 131 142
0.16352478 0.00481877 -0.01571799 71 44 122
-0.03715937 -0.00891460 0.04532073 53 94 141
0.05009741 0.22067592 -0.01663482 71 44 122
0.03244878 -0.26861724 -0.01375248 71 46 124
-0.00457800 0.25174260 0.25235718 165 219 54
0.05170542 0.01081374 0.05256307 51 99 141
-0.08008790 0.23929387 0.19294195 68 191 112
-0.00261954 -0.08987595 0.00280320 68 59 132
0.15479723 0.22080474 -0.02644060 72 35 116
0.13000913 -0.15036616 -0.02439623 72 36 117
0.13830233 -0.05989993 -0.02848851 72 32 113
-0.16595438 -0.34331483 -0.01466306 71 45 123
-0.05240255 -0.10846840 0.00435092 67 62 133
-0.08506931 -0.26937574 -0.01499330 71 45 123
-0.00158911 -0.24037924 -0.01189222 71 47 125
-0.07353888 0.01424688 -0.00903736 70 50 126
0.08432323 -0.03599479 -0.01137141 71 47 125
0.07604779 0.19902824 0.11373396 34 140 141
0.04665697 0.16108948 -0.02432539 72 36 117
0.00415011 -0.05331573 0.01188770 65 68 135
-0.08420449 -0.23603475 -0.01069706 70 48 126
-0.04252891 0.22772638 0.12465677 32 147 140
0.05022594 -0.22910106 -0.00809512 70 51 127
-0.03712853 0.25949824 -0.02675989 72 35 116
0.14075060 0.24397944 -0.02148112 72 38 119
-0.04471073 0.16608132 0.10524548 36 134 142
-0.07483043 -0.20454025 -0.00762656 70 51 127
0.02241200 -0.24089217 -0.00770544 70 51 127
-0.09652656 -0.02870757 0.04139510 55 91 141
0.10043488 -0.01200251 -0.01258186 71 47 125
0.12358644 -0.20455833 -0.02691529 72 33 115
0.01727225 -0.12069196 0.05124435 51 98 141
0.12414758 0.06746468 -0.01790112 71 42 122
-0.03789341 0.09821787 -0.01540714 71 45 123
0.10314893 -0.06231706 -0.01540311 71 45 123
0.10149576 -0.04336463 -0.01555101 71 44 122
-0.00373417 0.02797407 -0.01367147 71 46 124
0.01069871 -0.06894487 -0.00123315 68 57 131
-0.14538912 -0.25435644 -0.01265474 71 47 125
0.08166589 0.26817128 -0.02261718 72 37 118
0.06109608 0.18014908 0.08385041 42 120 142
-0.07490537 -0.01560905 0.03824712 56 89 140
0.03658710 0.24129437 -0.02161600 72 38 119
-0.01035458 0.24144246 0.15364984 33 166 133
0.15836714 -0.18871079 -0.02437280 72 36 117
-0.03012140 -0.22174796 -0.01789737 71 42 122
-0.11594307 0.04155159 -0.01231587 71 47 125
0.03597346 0.26038361 0.22391875 115 208 86
0.05981337 0.26053655 -0.03044567 72 31 112
-0.07858390 -0.32044902 -0.01674035 71 44 122
0.07844866 -0.10000883 -0.01032403 70 48 126
-0.03016774 -0.13626808 -0.01401072 71 46 124
-0.06490251 -0.11919183 -0.00223604 69 56 130
0.05222375 0.28370956 -0.01902571 72 41 121
0.01280293 0.24385856 0.16410188 39 173 129
-0.09126900 -0.31541067 -0.01840049 72 41 121
-0.03524018 0.13997693 0.06807508 46 110 142
-0.09902826 -0.28918919 -0.00302634 69 55 129
-0.01055838 -0.04611694 0.02458167 61 78 138
0.03857878 -0.12659167 -0.01006743 70 48 126
-0.02595305 0.20448188 0.08674423 41 122 142
0.08082776 -0.05917566 -0.01504476 71 45 123
0.11157380 -0.22681886 -0.03335450 72 28 110
-0.05928628 0.17186002 -0.02315911 72 37 118
-0.07645731 0.15378810 -0.01713712 71 42 122
0.08976962 -0.23225106 -0.01496643 71 45 123
-0.05013901 -0.23811145 -0.01648548 71 44 122
0.01085227 0.23829913 0.14295532 31 160 136
0.02051781 -0.16407736 -0.00874645 70 50 126
0.10472080 0.16269913 -0.01595393 71 44 122
-0.17620566 0.08943520 -0.02435981 72 36 117
-0.04499248 0.17719914 -0.02697918 72 33 115
0.16124795 -0.15258351 -0.01385306 71 46 124
0.08632724 -0.10009415 0.03588870 57 86 140
0.17103563 0.23621196 -0.02692892 72 33 115
0.16516067 0.21180275 -0.02124438 72 38 119
0.00289275 -0.09287575 -0.00992570 70 48 126
-0.03597527 -0.02781088 -0.00896618 70 50 126
-0.08197137 -0.04925186 0.01498441 64 70 136
0.09507596 -0.07849592 0.03422011 57 85 140
0.11718105 0.01048102 -0.02464620 72 36 117
-0.10001051 0.14013667 -0.01479476 71 45 123
-0.14016896 0.13190877 -0.01314020 71 46 124
0.06967176 -0.01901953 -0.00898907 70 50 126
-0.13855898 0.09184526 -0.01517130 71 45 123
0.00313910 0.22885180 0.24571924 155 217 60
0.07960057 -0.13237773 -0.01731409 71 42 122
-0.09298502 -0.20395218 -0.00671406 70 52 128
-0.19742513 0.06743199 -0.01516659 71 45 123
0.07254150 -0.24214365 -0.00754189 70 51 127
-0.03286910 0.17602162 0.07167229 45 112 142
-0.16893280 0.00749658 -0.01579294 71 44 122
-0.12229532 -0.18757807 -0.00340467 69 55 129
0.09198797 -0.19594114 -0.01349257 71 46 124
0.00345228 0.05933934 -0.01567098 71 44 122
-0.04699435 0.21525848 0.13670547 30 155 138
0.11602183 -0.02807974 -0.01277526 71 46 124
-0.00677571 -0.09024783 0.01664107 63 71 136
0.00422758 -0.16390041 -0.01073517 70 48 126
-0.13375720 0.04899305 -0.01541804 71 45 123
-0.04335399 0.00081822 0.05257571 51 99 141
0.00832415 0.25114626 0.19233134 68 191 112
-0.03747131 0.24360244 0.11880588 33 144 141
0.02534672 -0.20614254 -0.00774051 70 51 127
0.02461066 0.25442576 0.25186870 165 219 54
-0.08024120 0.24101830 0.16753030 41 175 127
0.07528511 0.00866624 0.03972784 55 90 140
0.05632253 -0.18247263 -0.01136089 71 47 125
0.05212851 0.16896386 -0.01157167 71 47 125
0.00154001 0.25990734 -0.02426270 72 36 117
-0.03647081 0.28460753 -0.02563517 72 35 116
0.10764991 0.10110188 -0.01917562 72 41 121
0.05569734 0.24731731 -0.02458176 72 36 117
0.07229160 0.21400714 0.08163786 42 118 142
0.16364737 0.03622859 -0.01999505 72 40 120
0.10347103 -0.21153134 -0.02626273 72 35 116
0.06751131 0.21999475 -0.02244632 72 38 119
-0.04994259 0.17637846 0.11149736 35 138 141
0.13142060 0.26557076 -0.02232420 72 38 119
0.07832818 -0.08412047 -0.00957702 70 50 126
0.07173258 0.24065250 0.11905152 33 144 141
0.02069657 0.07467949 -0.01631097 71 44 122
0.08890931 0.28226605 -0.02287323 72 37 118
0.16742116 -0.04956860 -0.01593444 71 44 122
-0.02834838 -0.09783631 0.00252934 68 59 132
-0.01303851 0.26541319 0.25999188 181 222 43
-0.10774276 -0.17309444 -0.00946188 70 50 126
0.04258082 0.24439733 0.23440334 134 213 73
0.01378005 0.24899928 0.25543803 170 220 50
-0.18736017 0.07593507 -0.01846621 72 41 121
-0.04164380 -0.08787917 0.04051712 55 90 140
-0.10785036 0.01963253 -0.01181439 71 47 125
-0.16360576 0.10825791 -0.01792287 71 42 122
0.13232143 -0.05174169 -0.02050040 72 40 120
0.05565348 0.05794616 -0.01565289 71 44 122
-0.16665685 -0.24232195 -0.01489051 71 45 123
0.13236430 0.03582969 -0.01684145 71 44 122
0.12394850 -0.12473088 -0.01663531 71 44 122
0.05888163 0.18912379 0.10541587 36 134 142
0.02747757 0.25343314 0.21821795 105 205 91
-0.01568568 -0.03995736 -0.00790429 70 51 127
-0.16212739 0.04326729 -0.01652830 71 44 122
-0.05631834 0.15174359 0.10272563 37 132 142
-0.09094714 -0.04301017 0.03674122 56 88 140
0.06757471 -0.06586675 0.00273223 68 59 132
-0.12451168 0.13211049 -0.01448005 71 45 123
0.08676690 -0.06549320 -0.02409037 72 36 117
0.12099590 0.23415045 -0.02491728 72 36 117
-0.07778802 -0.25207427 -0.02002676 72 40 120
0.09322728 -0.08999800 0.01361465 64 69 136
0.14778793 0.07602733 -0.01847886 72 41 121
0.02107141 0.24576516 0.15380032 33 166 133
-0.02941161 0.27137846 -0.02204334 72 38 119
0.06129725 0.16994973 0.06901164 46 110 142
-0.05897065 0.06774737 -0.01072420 70 48 126
0.02061689 0.25665689 -0.02430388 72 36 117
-0.19525973 -0.30251709 -0.01734724 71 42 122
0.12592009 0.25459540 -0.02210768 72 38 119
-0.04353309 -0.10840510 -0.00461318 69 53 129
0.05082329 0.23830223 0.15384194 33 166 133
0.12469355 -0.17210801 -0.01329004 71 46 124
-0.03643810 0.05163750 -0.01371850 71 46 124
-0.03618480 -0.12440959 0.03684760 56 88 140
-0.04408579 0.23629124 0.14832197 32 163 134
-0.14956120 -0.23061410 -0.01746073 71 42 122
-0.07555252 -0.05840592 0.01943860 62 73 137
-0.09971618 0.08446951 -0.01673399 71 44 122
-0.09798953 0.11893912 -0.01854013 72 41 121
0.14722942 0.19575775 -0.02148284 72 38 119
0.08159550 0.05844216 -0.01579947 71 44 122
0.12919213 0.22222862 -0.02437524 72 36 117
0.01531346 0.27458075 0.19540127 72 193 110
-0.01117351 0.30933726 -0.02313925 72 37 118
-0.01922047 0.15822813 0.06827236 46 110 142
-0.04435939 -0.12859607 0.01628101 63 71 136
0.13934681 -0.03547721 -0.02014621 72 40 120
0.06789484 0.11601806 -0.01919318 72 41 121
0.08386430 0.08414020 -0.01683241 71 44 122
0.04387210 0.11595900 -0.01784950 71 42 122
0.09450584 0.07698291 -0.01634916 71 44 122
0.09746449 0.22871204 0.10632592 36 135 142
0.00935626 -0.07675266 0.00977424 66 65 134
-0.06028844 0.14774212 -0.01693023 71 44 122
0.02782972 -0.14750658 -0.00719524 70 51 127
0.13352269 -0.13171218 -0.01431469 71 45 123
0.07768422 0.19886056 -0.02262106 72 37 118
-0.05223525 -0.12532333 0.03592170 57 86 140
-0.12096071 -0.24897142 -0.01486560 71 45 123
-0.18842776 -0.28442213 -0.01984442 72 40 120
-0.04381461 0.02773899 -0.01286239 71 46 124
0.06865222 -0.21935342 -0.00940580 70 50 126
0.09176534 -0.09239373 0.02882495 59 81 139
-0.00242690 0.23762235 0.18179667 55 184 120
0.08381863 0.24300607 0.11258248 34 139 141
-0.05168307 -0.22006500 -0.00711186 70 51 127
0.10863909 -0.14784893 -0.01141797 71 47 125
0.07740349 -0.21997820 -0.01993988 72 40 120
0.06888968 0.00449030 -0.01193568 71 47 125
-0.03596807 -0.08668298 0.02309427 61 77 138
0.05992272 -0.13978945 -0.00863326 70 50 126
-0.01975646 0.12420531 -0.01984966 72 40 120
-0.00254776 0.24894476 0.14652905 31 161 135
0.08344184 -0.18807374 -0.01201265 71 47 125
-0.06620409 -0.10941394 0.04455806 54 93 141
-0.11642921 0.06795686 -0.01405126 71 46 124
0.01163323 0.23533708 -0.02015004 72 40 120
0.10038920 0.24438706 -0.02531084 72 36 117
0.04573710 -0.20637600 -0.01246475 71 47 125
0.11637626 0.07608978 -0.01898134 72 41 121
0.17641659 0.20933124 -0.02408716 72 36 117
-0.18854068 0.12395491 -0.01664545 71 44 122
-0.01995543 0.05190243 -0.01465966 71 45 123
0.12374226 0.16426824 -0.02147564 72 38 119
0.12460168 -0.06003070 -0.01792849 71 42 122
0.01997350 0.09964924 -0.02026358 72 40 120
0.09678025 0.26503903 -0.02627316 72 35 116
-0.06838578 0.06025522 -0.01269284 71 47 125
-0.06002272 0.24410720 0.15825965 36 170 131
-0.04252135 0.10964428 -0.01655134 71 44 122
-0.06432602 -0.17678463 -0.00812165 70 51 127
-0.06769390 0.04374279 -0.01476786 71 45 123
0.02277103 -0.26877350 -0.00742553 70 51 127
0.06705885 0.18844904 -0.00677077 70 52 128
0.04418725 0.08393703 -0.01729748 71 42 122
0.15605429 0.13997360 -0.01979367 72 40 120
0.10894676 -0.16468619 -0.01872332 72 41 121
-0.04542913 -0.10108723 0.01358692 64 69 136
-0.01517213 0.29117253 -0.02288372 72 37 118
-0.04853388 0.20108344 0.12693129 31 148 140
0.10608961 -0.18587278 -0.01381683 71 46 124
0.17700921 -0.16667464 -0.02499715 72 36 117
0.04926270 0.15926208 0.08878928 41 123 142
-0.06179220 -0.04391281 0.00309835 67 61 132
0.12406042 0.14033061 -0.02015003 72 40 120
0.04198850 0.17527859 0.10462310 36 134 142
-0.02222086 -0.08998553 0.02491908 61 78 138
0.16394114 0.17217250 -0.02238979 72 38 119
0.06781283 0.18784471 0.07607447 44 114 142
-0.09248954 0.04388891 -0.01301204 71 46 124
0.05245611 0.03641903 -0.01851567 72 41 121
-0.09725004 0.10407649 -0.01713952 71 42 122
0.02825740 0.08467227 -0.01721055 71 42 122
-0.13923846 0.02006510 -0.01063499 70 48 126
-0.10449710 0.04937704 -0.01011184 70 48 126
0.12378800 0.12383698 -0.02122266 72 38 119
-0.06877378 -0.16693625 0.00138486 68 58 131
0.07645566 -0.17135657 -0.01685961 71 44 122
0.10803518 0.08387361 -0.01906172 72 41 121
0.13998877 0.14005591 -0.02098070 72 40 120
0.04040760 -0.25626019 -0.01099122 70 48 126
0.06005858 -0.16374336 -0.01046949 70 48 126
0.02221641 0.02256970 -0.01633675 71 44 122
-0.01996824 0.07606943 -0.01425679 71 45 123
0.00557407 0.21836938 0.23817973 139 214 70
0.01221652 -0.18800254 -0.01109489 70 48 126
-0.05203282 -0.20399317 -0.00609599 70 52 128
0.07604662 -0.15608524 -0.01111936 70 48 126
0.10035545 -0.14012739 -0.01111084 70 48 126
0.12894605 -0.10306767 -0.01914936 72 41 121
0.07571445 0.22802086 0.12381169 32 146 140
-0.12511340 -0.22262189 -0.00896475 70 50 126
-0.07797078 0.12516001 -0.01621893 71 44 122
-0.04425642 -0.12645672 0.04448266 54 93 141
-0.10015821 -0.23641315 -0.01019078 70 48 126
-0.01182264 0.03583531 -0.01423746 71 45 123
0.01182021 -0.17251365 -0.01010790 70 48 126
0.15115564 -0.14136621 -0.01531916 71 45 123
0.09178773 0.03598348 -0.01788631 71 42 122
0.05172214 -0.13218331 -0.01224583 71 47 125
0.04350127 -0.18785918 -0.01333453 71 46 124
0.16382240 0.11617343 -0.02058451 72 40 120
0.09974062 -0.17220953 -0.01484968 71 45 123
0.16396111 0.14785874 -0.01883822 72 41 121
0.07621654 -0.21161041 -0.01257258 71 47 125
0.16384943 0.13196516 -0.01911440 72 41 121
0.06204545 0.23072435 -0.02425573 72 36 117
0.02767900 0.13988264 -0.01740792 71 42 122
-0.09219135 -0.22822607 -0.01087011 70 48 126
0.09875569 -0.00167563 -0.01648250 71 44 122
-0.04529687 -0.13027571 -0.00547559 69 53 129
0.17858109 -0.11841493 -0.02402797 72 36 117
-0.12378366 0.01960199 -0.00967559 70 50 126
-0.01846341 -0.18946384 -0.00751182 70 51 127
0.07443441 0.00168077 0.04837885 52 96 141
-0.06028578 0.08401064 -0.01194469 71 47 125
0.11530638 -0.11646044 -0.01497347 71 45 123
-0.18614602 -0.29925615 -0.03297506 72 28 110
-0.16397607 0.12410769 -0.01488906 71 45 123
0.04404805 0.06801009 -0.01720819 71 42 122
-0.07648671 -0.02047151 0.01178598 65 68 135
0.14807181 0.13193607 -0.01919898 72 41 121
0.11594032 0.04393475 -0.02024283 72 40 120
0.00631363 -0.06741258 0.02714164 60 80 139
0.10781232 0.14832017 -0.02043377 72 40 120
0.04920676 0.25512040 0.16053422 37 171 130
-0.07627781 0.06813601 -0.01423042 71 45 123
-0.09553540 -0.30555338 -0.02486211 72 36 117
-0.00357285 -0.21183057 -0.00908811 70 50 126
-0.07067525 -0.24899480 -0.02793798 72 33 115
-0.00368067 0.13201462 -0.01946375 72 41 121
-0.10026851 -0.19583964 -0.00486024 69 53 129
0.03674551 0.25185975 0.24355344 149 216 64
-0.07598168 0.08433904 -0.01472993 71 45 123
0.04394527 -0.16402152 -0.01253317 71 47 125
-0.01973444 -0.10054096 -0.00985252 70 50 126
-0.04409035 0.04372291 -0.01293462 71 46 124
0.05869100 -0.12336225 -0.01709959 71 42 122
0.06085745 0.25844032 0.15720761 35 169 131
0.10005227 0.02792997 -0.01781418 71 42 122
-0.07295033 -0.04066493 0.00630987 66 63 133
-0.01134533 0.22348709 0.24837573 157 217 59
0.02011349 -0.19588566 -0.01225445 71 47 125
-0.13972710 0.11639798 -0.02074312 72 40 120
-0.05967985 -0.02830427 -0.00405279 69 55 129
0.08291037 0.22713253 0.10177219 37 132 142
0.08442010 0.10031816 -0.01754871 71 42 122
-0.01946921 0.31694499 -0.02060261 72 40 120
0.00421860 0.03577267 -0.01452651 71 45 123
0.05233081 0.01985926 -0.01441470 71 45 123
-0.12153061 0.09809770 -0.02367450 72 37 118
0.02785354 -0.17211686 -0.01128201 70 48 126
0.15061310 -0.16532032 -0.01506292 71 45 123
0.16705339 -0.06053200 -0.02119593 72 38 119
-0.07960024 0.24742621 0.17702252 50 182 122
0.14679831 -0.05104985 -0.02910924 72 32 113
0.13996238 -0.01270978 -0.01897577 72 41 121
0.05999981 0.14010651 -0.01953038 72 41 121
0.02002128 0.23614098 0.24338619 149 216 64
0.05340932 0.00524999 -0.00741279 70 51 127
0.05290506 0.17002983 0.09388845 39 127 142
0.07555827 0.03597166 -0.01858684 72 41 121
-0.17190254 0.09969816 -0.02121205 72 38 119
0.10786250 0.18775497 -0.01805586 71 42 122
-0.14742544 0.08164740 -0.01861523 72 41 121
-0.06743382 -0.19608727 -0.00684646 70 52 128
0.02889226 0.04876267 -0.01584362 71 44 122
0.06749013 0.02009169 -0.01849043 72 41 121
0.09236748 0.05991782 -0.01654587 71 44 122
0.06042897 0.12393692 -0.01863291 72 41 121
0.14755078 0.18005067 -0.02290745 72 37 118
0.06931277 0.27093723 -0.02301007 72 37 118
-0.05800089 -0.15579876 -0.01050043 70 48 126
0.00419193 0.09264573 -0.01743871 71 42 122
-0.09168883 0.02816518 -0.01113314 70 48 126
0.03672750 0.01681462 -0.01569808 71 44 122
0.07588875 0.07603832 -0.01667797 71 44 122
0.08466386 -0.01615521 0.05017704 52 97 141
0.08387505 0.11588847 -0.01870294 72 41 121
0.04381613 0.13984399 -0.01953292 72 41 121
-0.18028532 0.04341564 -0.01246629 71 47 125
-0.19698659 0.09789619 -0.01558150 71 44 122
0.10755890 0.21244399 -0.02663270 72 35 116
-0.05634624 0.18449540 0.11973158 33 144 141
-0.06050093 -0.12414266 0.04442612 54 93 141
0.09182159 -0.14826608 -0.01262894 71 47 125
0.08369286 0.17149782 -0.02174753 72 38 119
-0.14738573 0.05389329 -0.01834595 71 42 122
0.02792165 0.16303870 -0.01815679 71 42 122
0.04940709 0.19149625 0.11245847 34 139 141
-0.08127610 0.24157546 0.20542777 86 198 103
0.05189351 0.20627339 0.12317809 32 146 140
0.11643498 0.05995033 -0.01807704 71 42 122
0.13896358 -0.08375151 -0.03053197 72 31 112
0.12368982 0.08412121 -0.02029082 72 40 120
0.13972196 -0.10027893 -0.03011348 72 31 112
-0.16521700 0.06665194 -0.02254863 72 38 119
-0.09229684 -0.03641593 0.02675998 60 79 138
-0.03725633 -0.17063689 -0.02058651 72 40 120
-0.05190322 0.07578437 -0.01087131 70 48 126
-0.00376260 -0.04916638 0.00540497 67 62 133
0.05053532 0.26901275 -0.02028250 72 40 120
0.01897585 0.21509010 0.23747163 139 214 70
0.14727579 -0.06187242 -0.03482875 72 27 109
-0.03739557 -0.18346703 -0.00792478 70 51 127
-0.10006446 0.06776349 -0.01418458 71 45 123
-0.01090135 0.26844069 -0.02480507 72 36 117
-0.17868674 -0.24644050 -0.01082774 70 48 126
-0.07804266 -0.26528692 -0.02450144 72 36 117
-0.13178563 0.06870987 -0.01726837 71 42 122
-0.04503802 -0.07778525 0.01994651 62 74 137
0.06595647 0.19019209 0.09300578 39 126 142
0.05121055 -0.25140581 -0.01060954 70 48 126
-0.05820650 -0.01272821 0.03826339 56 89 140
0.01189984 0.14016546 -0.01866023 72 41 121
0.00475676 -0.08384869 0.02863304 59 81 139
-0.02039982 -0.17267984 -0.01306710 71 46 124
-0.05509347 -0.28871512 -0.01628977 71 44 122
0.02418008 0.26304746 0.17631854 49 181 123
-0.18886393 0.03564386 -0.01167271 71 47 125
0.08014581 0.20867528 0.11226854 34 139 141
0.04356384 -0.21980214 -0.00959530 70 50 126
-0.06196854 -0.16825473 -0.04656112 71 16 99
-0.08017957 -0.01545431 0.04739758 53 95 141
-0.05879845 0.19348963 0.12698969 31 148 140
0.07181845 -0.10320873 -0.00223123 69 56 130
0.17179145 0.01221302 -0.01996990 72 40 120
0.06798542 0.17223212 -0.02187843 72 38 119
0.05184823 0.15601102 0.07576232 44 114 142
-0.03247847 0.24197662 -0.01209861 71 47 125
-0.10149246 0.01193454 -0.01692045 71 44 122
-0.06083126 -0.23531158 -0.01122922 70 48 126
0.01916817 0.27212840 0.20890859 90 200 100
0.00681171 -0.05960005 0.00383559 67 61 132
0.10768708 0.17191245 -0.01998859 72 40 120
0.00056506 -0.04632824 0.02027616 62 74 137
-0.01924310 0.24435729 0.14762138 31 162 135
0.17185347 -0.11638385 -0.01443072 71 45 123
0.04567169 0.24565093 -0.01877394 72 41 121
0.00470137 -0.07543671 0.01948747 62 73 137
-0.04007093 0.19054639 0.10354511 37 133 142
0.09978384 0.09669317 -0.02438548 72 36 117
0.11613217 0.19597675 -0.01960373 72 41 121
0.13225345 0.09211574 -0.01907856 72 41 121
-0.02742091 -0.02032618 -0.01138194 71 47 125
-0.03423050 0.15259877 0.05412893 50 100 142
-0.09190304 -0.29980594 -0.01206329 71 47 125
0.00538808 -0.05989939 0.01992654 62 74 137
0.02770547 -0.18792374 -0.01174505 71 47 125
-0.05480166 -0.16220586 -0.03500491 72 27 109
-0.11504400 -0.19526823 -0.00365187 69 55 129
0.14705242 0.21197672 -0.02747292 72 33 115
-0.08767045 -0.24929981 -0.01325762 71 46 124
0.10057613 -0.22050154 -0.01322316 71 46 124
0.17416477 -0.14697699 -0.01398106 71 46 124
-0.04021406 0.16967079 0.08430915 42 120 142
0.14011487 0.08378091 -0.01960962 72 41 121
-0.05960400 0.22030282 0.15447736 34 167 133
0.09258150 0.20722994 -0.01565298 71 44 122
-0.02692049 -0.04648364 0.02100678 62 74 137
-0.06151700 -0.05682132 0.02031752 62 74 137
-0.03529651 0.11606814 -0.01990018 72 40 120
0.11314316 -0.04232972 -0.01533870 71 45 123
0.05910485 0.10013588 -0.02007739 72 40 120
