ply
format ascii 1.0
element vertex 1024
property float x
property float y
property float z
property uchar red
property uchar green
property uchar blue
end_header
-0.19556366 -0.39602116 -0.00475206 69 53 129
-0.17038345 0.37916404 -0.00405952 69 55 129
0.19493434 -0.02011611 -0.00036313 68 57 131
-0.14753014 -0.06040300 -0.00403104 69 55 129
0.06894333 0.23594214 0.13782403 30 156 137
0.10649736 -0.32115874 -0.00154233 69 56 130
-0.09999689 0.16375531 -0.00338161 69 55 129
0.19485797 0.17968738 -0.00033494 68 57 131
0.03617968 -0.13966522 -0.00210281 69 56 130
0.05115761 0.08012298 0.05199154 51 98 141
-0.11587390 -0.23612629 -0.00383878 69 55 129
-0.00591618 0.31234115 -0.00221534 69 56 130
0.19518489 -0.18802600 -0.00048167 68 57 131
-0.03646845 -0.39536795 -0.00308775 69 55 129
-0.08534627 0.23609516 0.13209514 31 152 139
-0.08189392 0.04426519 0.05863816 49 103 142
0.06814349 0.20377739 -0.00156273 69 56 130
-0.19383806 0.25404155 -0.00438300 69 53 129
0.08551357 -0.04170587 0.06004430 49 104 142
0.00442852 -0.25996724 -0.00253997 69 56 130
-0.19524483 0.09514790 -0.00438958 69 53 129
-0.01992045 -0.03628527 0.00034127 68 58 131
-0.19638498 -0.16403794 -0.00467264 69 53 129
0.14844711 0.07599113 -0.00067752 68 57 131
-0.06817150 -0.13216165 -0.00335747 69 55 129
0.13188915 -0.10802229 -0.00103441 68 57 131
0.09991273 -0.22017366 -0.00149662 69 56 130
-0.01188736 0.28145254 0.18195313 55 184 120
-0.19564515 -0.29244104 -0.00476208 69 53 129
-0.02761040 0.10006424 -0.00262250 69 56 130
-0.10853919 -0.33177418 -0.00380874 69 55 129
0.03056822 0.17007016 0.07789622 43 116 142
-0.02751481 0.21972807 -0.00256686 69 56 130
-0.09738157 0.32636175 -0.00335919 69 55 129
-0.06035063 0.17253560 0.07563441 44 114 142
0.18441424 -0.28055692 -0.00049159 68 57 131
-0.08212138 -0.04202799 0.05929157 49 103 142
0.13946830 0.25088599 -0.00062369 68 57 131
0.08669019 0.02019504 0.00376360 67 61 132
0.02776042 -0.34006605 -0.00232592 69 56 130
-0.18103231 0.17180203 -0.00431664 69 53 129
0.06738273 0.28165868 -0.00155175 69 56 130
0.08408474 0.12419423 -0.00139879 68 57 131
-0.00370161 0.02791396 0.04074189 55 90 140
-0.04436868 -0.20400207 -0.00297924 69 55 129
0.05164645 -0.06800243 -0.00188505 69 56 130
-0.12357446 0.09549043 -0.00361906 69 55 129
-0.08040652 0.00095430 -0.00050876 68 57 131
0.01255099 -0.04237905 0.06098347 48 105 142
0.01217865 0.15593052 -0.00219128 69 56 130
-0.04415079 -0.30836251 -0.00315721 69 55 129
0.12381433 -0.03610485 -0.00108649 68 57 131
0.19792925 -0.09527242 0.00003693 68 58 131
-0.12731177 0.22507620 -0.00364602 69 55 129
-0.12339199 -0.39636260 -0.00398046 69 55 129
-0.13136810 -0.15590407 -0.00390821 69 55 129
-0.18070222 -0.22790864 -0.00451994 69 53 129
-0.03674120 0.27813226 0.12086439 33 145 140
-0.07600790 -0.06777883 -0.00318338 69 55 129
0.03651986 -0.20375328 -0.00215233 69 56 130
-0.05833283 0.27623942 -0.00289064 69 55 129
0.13212454 0.17211556 -0.00081399 68 57 131
-0.19587319 -0.09988751 -0.00458017 69 53 129
-0.01181605 -0.09991792 -0.00262593 69 56 130
-0.02760384 0.08111348 0.06072777 48 105 142
0.19508614 0.11581161 -0.00038118 68 57 131
0.06939530 0.22003275 0.07942680 43 117 142
-0.07607709 0.06020803 -0.00020554 68 57 131
0.06036655 -0.28404450 -0.00195491 69 56 130
0.11616953 -0.16425376 -0.00129798 68 57 131
0.19347297 0.03773021 0.00007100 68 58 131
-0.16431828 -0.34775096 -0.00440093 69 53 129
0.03598299 0.09332366 -0.00190307 69 56 130
0.08626081 0.03569315 0.05964950 49 104 142
-0.04382690 0.15609430 -0.00280476 69 56 130
0.15602934 -0.22801712 -0.00083902 68 57 131
0.02008027 0.25188604 -0.00207635 69 56 130
0.01255185 0.25524968 0.13195089 31 152 139
-0.04859508 0.22546586 0.08653782 41 122 142
-0.14065199 -0.28406551 -0.00410878 69 55 129
-0.06757674 -0.25984809 -0.00322370 69 55 129
0.13982002 0.01985385 -0.00092166 68 57 131
-0.02052038 -0.15574096 -0.00275485 69 56 130
0.18988019 0.23258172 0.00008386 68 58 131
0.13195111 -0.27609557 -0.00117626 68 57 131
0.17201142 -0.13992502 -0.00078199 68 57 131
-0.07589092 0.11593816 -0.00316234 69 55 129
-0.09226574 -0.18808782 -0.00358292 69 55 129
-0.11594943 -0.10786052 -0.00373760 69 55 129
0.08655046 0.07599778 0.01236038 65 68 135
0.03082004 0.21055971 0.11007241 35 137 142
0.08355294 -0.12401544 -0.00160899 69 56 130
-0.02811145 0.04700860 0.00036775 68 58 131
0.14023748 0.12397146 -0.00077899 68 57 131
0.02008877 0.20399864 -0.00207831 69 56 130
-0.06749687 -0.35564670 -0.00329743 69 55 129
-0.03499682 -0.04278538 0.06041775 49 104 142
-0.14062838 0.14009115 -0.00388141 69 55 129
0.16400614 -0.06008983 -0.00085525 68 57 131
-0.02050900 -0.34780884 -0.00283838 69 55 129
-0.05160708 0.32408917 -0.00271519 69 56 130
0.09980613 -0.07591835 -0.00136617 68 57 131
0.09189568 0.24396208 -0.00127373 68 57 131
-0.19769201 0.29866558 -0.00435818 69 53 129
0.06793710 -0.17199367 -0.00178817 69 56 130
0.00051007 0.07947899 0.02510004 61 78 138
-0.12525803 0.36079726 -0.00336704 69 55 129
-0.14871752 -0.19617639 -0.00418100 69 55 129
0.08662144 -0.02007163 0.02024455 62 74 137
-0.08144177 0.00384581 0.04401495 54 93 141
0.03072251 0.15511924 0.03777953 56 88 140
0.04813182 -0.04094228 0.03748050 56 88 140
-0.02708825 0.25261450 0.15538195 34 168 132
-0.08137197 0.20299508 0.09954708 38 130 142
-0.15692431 -0.11582635 -0.00415903 69 55 129
-0.06833779 0.07885778 0.03616986 57 86 140
-0.03559911 0.00219324 0.00017979 68 58 131
-0.05130284 0.15773515 0.03776411 56 88 140
0.04443035 -0.24417074 -0.00210687 69 56 130
-0.05676846 -0.04205116 0.02253837 62 76 138
-0.00415273 -0.19606748 -0.00260903 69 56 130
-0.00395595 -0.30004478 -0.00265750 69 56 130
-0.09265368 -0.29218990 -0.00367006 69 55 129
-0.02038549 0.26002279 -0.00249763 69 56 130
0.09206674 0.16430932 -0.00129701 68 57 131
0.12387311 0.21192536 -0.00095425 68 57 131
0.19546561 -0.23597080 -0.00029305 68 57 131
0.05240795 0.15582946 -0.00177898 69 56 130
0.06782055 -0.33204940 -0.00189090 69 56 130
-0.18776664 -0.06058287 -0.00443825 69 53 129
0.11601569 0.05232413 -0.00109143 68 57 131
-0.07654016 -0.39566085 -0.00346494 69 55 129
0.14830837 -0.18809074 -0.00088467 68 57 131
0.02812739 -0.10030205 -0.00216551 69 56 130
0.09193932 -0.26003984 -0.00158987 69 56 130
0.01181046 -0.05987612 -0.00236816 69 56 130
-0.17936859 0.13183549 -0.00428034 69 53 129
0.02794780 0.29190508 -0.00197511 69 56 130
0.17200586 0.14810389 -0.00061296 68 57 131
0.18804303 0.07600516 -0.00025700 68 57 131
0.16417859 0.20391771 -0.00067571 68 57 131
-0.04772419 0.23717591 0.12426555 32 147 140
-0.15585759 0.25192481 -0.00398167 69 55 129
0.06839917 0.20547797 0.11446834 34 141 141
0.01225887 0.08139582 0.06106264 48 105 142
0.08604561 -0.00385768 0.05976826 49 104 142
0.07218427 0.24976501 0.10262530 37 132 142
0.00881055 0.00608639 0.01289510 64 69 136
0.00194259 -0.37690642 -0.00271175 69 56 130
-0.02860628 -0.24397388 -0.00286604 69 55 129
0.15617059 -0.02002783 -0.00081779 68 57 131
-0.05237378 -0.09968182 -0.00301924 69 55 129
0.11580788 0.09214837 -0.00107566 68 57 131
0.08604988 0.07604099 0.05962113 49 104 142
0.04396985 0.25910315 0.14900081 32 163 134
-0.06040888 -0.17168698 -0.00322125 69 55 129
0.05220809 0.23587023 -0.00171303 69 56 130
-0.06653103 0.26340267 0.14488128 31 161 136
-0.19610347 -0.33198121 -0.00473206 69 53 129
-0.12953590 0.18972132 -0.00369767 69 55 129
-0.03543116 -0.06787176 -0.00289171 69 55 129
-0.07588138 -0.21994813 -0.00339488 69 55 129
-0.01221551 0.18794884 -0.00242845 69 56 130
0.00357946 0.11610845 -0.00232430 69 56 130
-0.15596145 -0.25179994 -0.00426802 69 53 129
0.02011315 -0.17227280 -0.00231432 69 56 130
-0.15517962 0.10800988 -0.00407240 69 55 129
0.19756886 -0.05529802 0.00004673 68 58 131
-0.13252331 -0.36380285 -0.00409416 69 55 129
0.01073030 -0.04134950 0.02724879 60 80 139
-0.08141843 0.02784686 0.01964516 62 73 137
0.00867459 0.04213555 0.01298476 64 69 136
-0.15597855 -0.38857797 -0.00437369 69 53 129
-0.10848853 -0.06017556 -0.00366136 69 55 129
0.03609810 -0.30782691 -0.00220472 69 56 130
0.16416289 -0.10001251 -0.00080933 68 57 131
0.17217474 0.01219267 -0.00063764 68 57 131
0.00390607 -0.13189276 -0.00242379 69 56 130
0.12410616 -0.24388623 -0.00123096 68 57 131
-0.05204990 0.24372023 -0.00279127 69 56 130
-0.16342434 -0.30807677 -0.00439515 69 53 129
0.01707685 0.27348313 0.16163290 37 172 130
-0.09956627 -0.36403772 -0.00373465 69 55 129
0.05536857 0.19277985 0.06735599 46 109 142
0.13207816 -0.06809882 -0.00100680 68 57 131
-0.18789196 -0.26001111 -0.00461340 69 53 129
-0.18882118 -0.13202997 -0.00453937 69 53 129
-0.07580888 -0.32383969 -0.00339178 69 55 129
-0.09998310 -0.14045019 -0.00362760 69 55 129
0.08498459 -0.04471090 -0.00145446 69 56 130
0.11611591 -0.00422211 -0.00117161 68 57 131
0.01203006 -0.22807311 -0.00247137 69 56 130
0.08655982 0.04372232 0.02786842 60 80 139
-0.18833199 -0.19603541 -0.00455766 69 53 129
-0.07566115 0.25774190 0.10953734 35 137 142
-0.03541431 -0.27593076 -0.00301622 69 55 129
-0.10765661 0.13204375 -0.00350325 69 55 129
-0.16387384 -0.15593590 -0.00427677 69 53 129
-0.02751294 0.00593408 0.04050336 55 90 140
-0.08097628 -0.03596275 -0.00029509 68 57 131
0.06041693 -0.10024944 -0.00184378 69 56 130
0.13982417 -0.14004499 -0.00099811 68 57 131
0.09212182 -0.29215539 -0.00157897 69 56 130
0.06749704 -0.21207240 -0.00183053 69 56 130
-0.08433557 -0.10008145 -0.00344246 69 55 129
-0.03133931 0.07915324 0.02721059 60 80 139
0.00104772 0.24688126 0.16924039 42 176 127
-0.19591981 -0.36419243 -0.00473902 69 53 129
0.05233220 0.12399195 -0.00179697 69 56 130
0.03567407 0.25393948 0.11045757 35 138 141
0.03479920 0.23298049 0.13389625 31 153 138
-0.18544424 0.35195532 -0.00411215 69 55 129
-0.02579808 -0.04170724 0.03026867 59 82 139
0.19759725 -0.15695661 0.00002296 68 58 131
0.16383576 0.04410473 -0.00043478 68 57 131
-0.16275093 0.22242412 -0.00407755 69 55 129
-0.05027663 0.19602038 0.09218469 39 126 142
-0.05009768 0.07513195 0.00168201 68 59 132
-0.02756405 0.29183024 -0.00251449 69 56 130
-0.07515888 0.30066711 -0.00308013 69 55 129
0.15318087 -0.29679018 -0.00100563 68 57 131
-0.01940155 0.13967991 -0.00254399 69 56 130
-0.13950115 -0.33212423 -0.00414335 69 55 129
0.11587833 0.14006817 -0.00106418 68 57 131
-0.03629673 -0.12404104 -0.00294411 69 55 129
-0.11611913 -0.26826259 -0.00388371 69 55 129
0.11626884 -0.19600992 -0.00125228 68 57 131
-0.05130978 -0.02231523 0.00005370 68 58 131
0.00356391 0.22789578 -0.00226524 69 56 130
-0.07553826 0.14811009 -0.00310468 69 55 129
-0.16425484 -0.08411458 -0.00424848 69 53 129
0.03621345 0.17995498 -0.00194344 69 56 130
0.16423260 0.10790046 -0.00067599 68 57 131
0.00400705 0.27583385 -0.00219209 69 56 130
-0.04708634 0.25692868 0.10327094 37 133 142
-0.10121669 0.19492123 -0.00352260 69 55 129
0.09988990 0.19604851 -0.00123544 68 57 131
0.16442835 -0.25989893 -0.00064236 68 57 131
0.02836975 -0.27585635 -0.00229288 69 56 130
0.11213163 0.26435125 -0.00073487 68 57 131
-0.08144131 -0.02841958 0.02808382 60 80 139
-0.04355315 0.12391048 -0.00277475 69 56 130
0.08657940 0.01180051 0.03581461 57 86 140
-0.01525462 0.25915650 0.12695757 31 148 140
0.06776503 0.10009655 -0.00162534 69 56 130
-0.00677672 0.06736007 0.00053703 68 58 131
0.18005638 -0.21199055 -0.00064208 68 57 131
-0.13168493 -0.08387814 -0.00390296 69 55 129
-0.12349549 -0.30777749 -0.00393565 69 55 129
0.05062035 0.19439380 0.09565143 39 128 142
0.02840207 0.07978066 0.02841431 59 81 139
0.17219631 -0.17192018 -0.00060911 68 57 131
-0.02786582 0.04206946 0.04035107 55 90 140
-0.17344989 0.27369460 -0.00411700 69 55 129
-0.06388301 0.21530956 0.11786076 33 143 141
0.19505629 -0.12417176 -0.00049856 68 57 131
-0.08250050 0.08108634 0.05998351 49 104 142
-0.11515231 -0.20377798 -0.00377999 69 55 129
-0.04967969 0.19384529 0.06232380 48 106 142
0.08680490 0.05226058 -0.00093741 68 57 131
-0.00685009 -0.01215494 0.00044960 68 58 131
0.04392560 0.26843759 -0.00175641 69 56 130
0.05996735 0.25800368 0.12531760 32 147 140
-0.19708084 0.37703702 -0.00426493 69 53 129
-0.15591218 0.16252673 -0.00405519 69 55 129
0.16392687 0.23618536 -0.00044259 68 57 131
-0.08014947 0.23179382 0.10579553 36 134 142
-0.08147395 0.05250221 0.02813882 60 80 139
0.05960457 -0.04182586 0.06071838 48 105 142
0.10823522 -0.13187110 -0.00131656 68 57 131
0.09183440 -0.18800123 -0.00156638 69 56 130
-0.09194060 -0.25219217 -0.00361723 69 55 129
0.02815413 0.13209347 -0.00201757 69 56 130
0.09205566 -0.15600389 -0.00154950 69 56 130
-0.14701639 -0.22794083 -0.00417731 69 55 129
0.04359654 0.17152023 0.05238182 51 99 141
-0.02007798 -0.22003183 -0.00277048 69 56 130
-0.03554154 -0.18018301 -0.00291346 69 55 129
0.07622024 -0.23591508 -0.00174324 69 56 130
0.09213156 -0.10009652 -0.00147421 69 56 130
-0.09988710 0.10802048 -0.00342070 69 55 129
0.11617196 0.23596638 -0.00100213 68 57 131
0.12376017 -0.29997247 -0.00126370 68 57 131
-0.05334201 0.04762010 -0.00004248 68 57 131
-0.04360736 -0.36378968 -0.00317492 69 55 129
-0.12409607 -0.13178591 -0.00383192 69 55 129
-0.05975839 -0.28374818 -0.00332944 69 55 129
0.08705583 -0.00449034 -0.00101659 68 57 131
-0.01228027 -0.32405707 -0.00274394 69 56 130
0.16396660 0.17191797 -0.00045956 68 57 131
0.04378407 -0.16388659 -0.00203910 69 56 130
-0.12424557 -0.17996517 -0.00387601 69 55 129
0.10783160 0.11612821 -0.00116620 68 57 131
0.04384763 0.21191852 -0.00181591 69 56 130
0.13190581 -0.22013488 -0.00113728 68 57 131
-0.05152959 -0.22789793 -0.00320400 69 55 129
-0.06794462 -0.19585763 -0.00329240 69 55 129
-0.05197095 -0.33204409 -0.00318264 69 55 129
-0.08423583 -0.16445492 -0.00352786 69 55 129
0.08651666 0.06787399 0.03611294 57 86 140
0.00848961 0.00622526 0.04042760 55 90 140
-0.05246871 0.09980770 -0.00298377 69 55 129
0.00425129 -0.34792778 -0.00261232 69 56 130
-0.17138082 -0.28465754 -0.00449070 69 53 129
0.19666542 0.14637503 0.00008926 68 58 131
0.02977275 0.14777923 0.06129901 48 105 142
0.06031154 -0.13219680 -0.00186617 69 56 130
0.07662227 -0.06784000 -0.00160710 69 56 130
-0.04382458 -0.14822313 -0.00294000 69 55 129
0.04891390 -0.35238451 -0.00213763 69 56 130
-0.05196520 0.08079157 0.06038524 49 104 142
-0.02032839 0.16401951 -0.00252624 69 56 130
0.18847106 0.20384978 -0.00036926 68 57 131
0.14819036 -0.16383114 -0.00081878 68 57 131
0.14777069 0.14821528 -0.00059578 68 57 131
-0.10015624 -0.38821846 -0.00372034 69 55 129
0.11623272 0.02814618 -0.00115889 68 57 131
-0.07665092 0.33877739 -0.00317125 69 55 129
-0.12412550 0.16387159 -0.00364687 69 55 129
0.14008124 0.05203739 -0.00083266 68 57 131
0.14006762 0.09995945 -0.00080768 68 57 131
0.09168059 0.21995535 -0.00128893 68 57 131
0.06007468 -0.30815655 -0.00195724 69 56 130
-0.01145381 -0.07598405 -0.00259765 69 56 130
0.06796248 0.17984408 -0.00155081 69 56 130
0.01217723 0.17975867 -0.00219649 69 56 130
-0.05733639 -0.04195450 0.04633819 53 94 141
-0.01000485 -0.04142340 0.05349015 51 99 141
-0.05737240 0.14963661 0.05928926 49 103 142
0.06819917 -0.26011738 -0.00181752 69 56 130
0.19449948 0.00416400 -0.00023981 68 57 131
-0.14859450 0.36501595 -0.00381955 69 55 129
0.09002347 0.27287403 -0.00128902 68 57 131
0.08670150 -0.04178886 0.03642921 57 86 140
-0.00348769 -0.17210747 -0.00255812 69 56 130
-0.19641866 0.14787182 -0.00446944 69 53 129
0.05181661 0.21942288 0.12533583 32 147 140
-0.10802133 -0.08351333 -0.00365509 69 55 129
-0.10367745 0.35206687 -0.00334260 69 55 129
-0.03362137 0.19687824 -0.00274228 69 56 130
-0.02864693 0.32087713 -0.00251922 69 56 130
0.19518897 -0.26014936 -0.00042357 68 57 131
0.06176722 -0.04734667 -0.00185610 69 56 130
0.01200205 -0.08390602 -0.00235851 69 56 130
0.07587726 0.14799711 -0.00151390 69 56 130
0.14043586 0.19600658 -0.00071013 68 57 131
-0.05220234 0.30002034 -0.00283429 69 55 129
-0.08154242 -0.02017593 0.05225055 51 99 141
-0.04400097 0.25997317 0.13283630 31 153 138
0.14009590 -0.00375349 -0.00084685 68 57 131
0.01251968 0.09506248 -0.00220978 69 56 130
-0.14791761 -0.13970578 -0.00408643 69 55 129
-0.16470011 -0.17998889 -0.00430634 69 53 129
0.06920186 0.22790341 0.10811385 35 136 142
0.09195481 0.09986332 -0.00139350 68 57 131
0.18023032 -0.07599121 -0.00055241 68 57 131
0.10809934 -0.27600968 -0.00135803 68 57 131
0.13997366 0.22794718 -0.00068926 68 57 131
-0.02021209 -0.37193543 -0.00290965 69 55 129
0.01240919 -0.31575793 -0.00247127 69 56 130
0.17219910 -0.03605852 -0.00039704 68 57 131
0.14805624 -0.04400466 -0.00088509 68 57 131
0.08654155 -0.02007326 0.04396028 54 93 141
-0.01187642 -0.27568954 -0.00269579 69 56 130
-0.14671172 0.20645227 -0.00378109 69 55 129
-0.17138690 -0.37199900 -0.00450006 69 53 129
0.10800695 -0.05225987 -0.00129089 68 57 131
0.15613420 -0.12388930 -0.00075530 68 57 131
0.06785667 0.25206941 -0.00151845 69 56 130
-0.13176921 -0.25206056 -0.00401766 69 55 129
-0.05964391 -0.37957323 -0.00339885 69 55 129
0.08345477 -0.31595066 -0.00174189 69 56 130
0.11609742 -0.09209996 -0.00122815 68 57 131
0.04428942 -0.11583011 -0.00199245 69 56 130
0.14781627 -0.08405267 -0.00093625 68 57 131
-0.07695068 0.17047185 -0.00309747 69 55 129
-0.19625555 0.27634582 -0.00437512 69 53 129
0.02821271 0.22789109 -0.00199132 69 56 130
-0.10870345 -0.16392148 -0.00373196 69 55 129
0.09988785 -0.02812656 -0.00136142 68 57 131
-0.10011263 -0.22021276 -0.00367197 69 55 129
0.03480640 -0.04213675 0.06040414 49 104 142
-0.02701689 0.07646903 0.00135519 68 58 131
0.01994597 -0.36391190 -0.00246122 69 56 130
-0.16360840 -0.21253581 -0.00434583 69 53 129
-0.07392863 0.07867496 0.01174661 65 68 135
-0.08205996 0.02026382 0.05879252 49 103 142
-0.13200986 0.11587279 -0.00378234 69 55 129
0.05180495 -0.18792933 -0.00195753 69 56 130
0.03603882 -0.05281219 -0.00202839 69 56 130
-0.00688830 0.07953458 0.05100122 51 98 141
-0.07367513 0.18735994 0.08661810 41 122 142
-0.04279311 -0.04170549 0.00385295 67 61 132
0.03075702 0.18742967 0.09213035 39 126 142
-0.17210145 0.09502519 -0.00421912 69 55 129
-0.08145154 -0.00380272 0.02014807 62 74 137
-0.19710328 0.18546635 -0.00439826 69 53 129
-0.17926382 0.23881561 -0.00420769 69 55 129
0.05082047 0.17363787 0.08212088 42 119 142
0.01980726 0.25383988 0.15507469 34 167 133
-0.19612364 0.11599708 -0.00447806 69 53 129
0.02163233 0.27484402 0.14133614 31 159 136
0.10036207 0.06798042 -0.00125941 68 57 131
-0.01504213 0.26418954 0.16767617 41 175 127
-0.08809930 0.21846133 0.11937568 33 144 141
-0.08015192 0.09592607 -0.00317341 69 55 129
-0.05995829 0.00103037 0.00005097 68 58 131
-0.00672051 0.04654352 0.00047207 68 58 131
0.03046415 0.07992445 0.05215259 51 98 141
-0.05057694 0.17191395 0.05217934 51 98 141
-0.05667692 0.24345861 0.09245241 39 126 142
0.06407817 0.25813758 0.14455336 31 161 136
0.00864989 0.04213448 0.03577678 57 86 140
-0.06056337 0.24144953 0.13815613 30 156 137
-0.00227588 0.25365832 0.15153651 33 165 133
0.03583398 0.25507313 0.13219690 31 152 139
0.06504217 0.20673405 0.09418586 39 127 142
-0.13234350 -0.21178481 -0.00399974 69 55 129
-0.05216182 0.07893182 0.02012204 62 74 137
-0.18065815 -0.31576815 -0.00456221 69 53 129
-0.05244918 -0.07598335 -0.00312467 69 55 129
-0.09159514 -0.33978486 -0.00358899 69 55 129
-0.14781439 -0.17204051 -0.00416604 69 55 129
-0.00352596 0.25205752 -0.00228714 69 56 130
-0.08154745 0.06835922 0.04410654 54 93 141
0.18271707 0.10187872 0.00002088 68 58 131
-0.00457002 -0.24367213 -0.00263524 69 56 130
-0.17965838 -0.11591286 -0.00445105 69 53 129
0.01248778 -0.20414709 -0.00241772 69 56 130
0.01190181 -0.15569867 -0.00241087 69 56 130
0.14768711 -0.25210035 -0.00098937 68 57 131
-0.04844204 0.22788800 0.10831659 35 136 142
-0.06018763 0.13193093 -0.00290638 69 55 129
-0.09184177 -0.12390978 -0.00345409 69 55 129
-0.02776928 -0.29998526 -0.00287168 69 55 129
0.00873082 0.01991920 0.02819080 60 80 139
-0.06835548 -0.29994684 -0.00328089 69 55 129
0.01973546 -0.29201820 -0.00241938 69 56 130
0.12434945 0.07594368 -0.00101600 68 57 131
0.06858725 0.08140232 0.06080868 48 105 142
-0.00456715 0.29200163 -0.00230083 69 56 130
-0.08408546 -0.27602267 -0.00353169 69 55 129
0.11579558 0.16387914 -0.00104416 68 57 131
-0.14016098 -0.10006794 -0.00396899 69 55 129
0.15581800 -0.27599379 -0.00095615 68 57 131
-0.03585110 -0.09193547 -0.00292769 69 55 129
-0.07621571 -0.37196851 -0.00353036 69 55 129
0.01070295 0.30491784 -0.00203155 69 56 130
0.03620588 -0.22794430 -0.00219135 69 56 130
-0.01238720 -0.12382519 -0.00263945 69 56 130
-0.16465521 -0.26777324 -0.00434552 69 53 129
0.03639075 -0.08411562 -0.00210216 69 56 130
-0.07583629 -0.24366075 -0.00328753 69 55 129
-0.19614944 -0.24382655 -0.00472075 69 53 129
0.02804214 -0.25199169 -0.00229799 69 56 130
0.13207664 -0.18002093 -0.00110553 68 57 131
0.04365699 -0.32429427 -0.00214414 69 56 130
0.07581986 -0.14797524 -0.00170671 69 56 130
0.05446981 0.08782265 -0.00168645 69 56 130
-0.08146886 0.03617884 0.03591704 57 86 140
0.10808378 0.01196249 -0.00125804 68 57 131
-0.19600506 -0.21238045 -0.00470710 69 53 129
-0.15679075 0.13205330 -0.00399638 69 55 129
-0.04434756 0.25999421 -0.00267882 69 56 130
0.17223682 0.22000690 -0.00038954 68 57 131
0.10002665 0.03595667 -0.00130732 68 57 131
-0.17260459 -0.24396819 -0.00445077 69 53 129
-0.02783760 -0.10807430 -0.00273991 69 56 130
0.16427667 -0.00398227 -0.00080837 68 57 131
0.00387016 0.19597301 -0.00224814 69 56 130
0.13173173 -0.01996565 -0.00102349 68 57 131
-0.14791277 0.23579952 -0.00386930 69 55 129
0.14017266 -0.20409025 -0.00103226 68 57 131
0.16409215 0.13199374 -0.00059717 68 57 131
0.07540921 -0.19596469 -0.00172209 69 56 130
-0.02750869 -0.02003982 0.00032900 68 58 131
-0.08392495 0.13196594 -0.00326408 69 55 129
0.17207636 -0.23601204 -0.00083207 68 57 131
0.17988409 0.05209688 -0.00045475 68 57 131
0.10794307 0.17999348 -0.00112115 68 57 131
-0.11656602 -0.34779847 -0.00392446 69 55 129
-0.06827859 -0.10802328 -0.00322443 69 55 129
-0.17189197 -0.13991602 -0.00439448 69 53 129
0.08652871 0.05189947 0.05202202 51 98 141
0.09985170 -0.24397072 -0.00145659 69 56 130
-0.04336718 0.22804517 -0.00281148 69 56 130
-0.04369752 -0.26006892 -0.00304433 69 55 129
-0.14880711 -0.37218416 -0.00423967 69 53 129
0.01197678 -0.11593354 -0.00235974 69 56 130
0.05100958 0.28884894 -0.00167436 69 56 130
0.08388303 -0.27600157 -0.00168647 69 56 130
0.06834749 -0.08422833 -0.00173164 69 56 130
0.02812738 0.16400385 -0.00200955 69 56 130
0.10838635 -0.10821621 -0.00135623 68 57 131
-0.01956894 0.23572512 -0.00247269 69 56 130
0.03587106 0.11598638 -0.00197986 69 56 130
-0.10000620 -0.31609070 -0.00371103 69 55 129
0.11591574 -0.25996557 -0.00132043 68 57 131
0.03630356 0.14793636 -0.00197146 69 56 130
-0.17271353 -0.33204105 -0.00448174 69 53 129
-0.17207401 -0.39616972 -0.00454174 69 53 129
0.00398730 0.14013182 -0.00225835 69 56 130
-0.02002894 -0.25987589 -0.00281726 69 56 130
0.10814050 -0.18012904 -0.00139118 68 57 131
-0.18790261 -0.34831157 -0.00466330 69 53 129
-0.06049543 -0.04164319 0.00214510 68 59 132
0.12398729 0.10793835 -0.00097418 68 57 131
-0.08140069 -0.02009487 0.01237762 65 68 135
0.14811327 0.17995118 -0.00067949 68 57 131
0.03606064 0.24411634 -0.00187676 69 56 130
0.17203651 -0.11594227 -0.00064574 68 57 131
-0.06813977 0.26228228 0.12498120 32 147 140
-0.00416123 -0.14810714 -0.00254344 69 56 130
-0.04912950 0.21191694 0.10003617 38 130 142
-0.03606612 0.27623600 -0.00268318 69 56 130
0.17198370 -0.19618200 -0.00085483 68 57 131
-0.17129797 0.11602668 -0.00416865 69 55 129
0.17219785 0.08399462 -0.00040333 68 57 131
0.15619776 0.09195427 -0.00074762 68 57 131
-0.09171076 -0.07603805 -0.00347511 69 55 129
-0.17242348 0.15603641 -0.00417515 69 55 129
0.06816342 0.13201812 -0.00159085 69 56 130
0.07612359 0.23584789 -0.00144163 69 56 130
-0.01957818 0.11587766 -0.00254333 69 56 130
-0.11672415 -0.37183529 -0.00392787 69 55 129
-0.00413465 0.21193340 -0.00236772 69 56 130
0.16409992 -0.15602684 -0.00087272 68 57 131
0.18015306 -0.05206136 -0.00031888 68 57 131
-0.14745197 -0.31629449 -0.00423404 69 55 129
0.08660452 0.03587386 0.01199511 65 68 135
0.13229442 -0.15606926 -0.00106822 68 57 131
0.08658405 -0.00408407 0.02802714 60 80 139
0.15603429 0.02822824 -0.00054518 68 57 131
0.05230116 -0.14796874 -0.00198449 69 56 130
0.04416991 -0.26791176 -0.00209075 69 56 130
0.02775246 -0.12411631 -0.00219258 69 56 130
0.10008752 0.13211648 -0.00122619 68 57 131
-0.11598863 -0.29177380 -0.00383863 69 55 129
0.17981094 0.16409223 -0.00025406 68 57 131
-0.03634284 0.07921821 0.04415966 54 93 141
0.12421323 0.18791334 -0.00095988 68 57 131
0.00399731 -0.28401539 -0.00252972 69 56 130
0.02803584 -0.18804380 -0.00224273 69 56 130
-0.07595214 -0.14800276 -0.00326219 69 55 129
0.04374029 -0.29191855 -0.00213299 69 56 130
0.16412041 0.06787954 -0.00061314 68 57 131
-0.13263735 -0.11602993 -0.00390994 69 55 129
-0.02774331 -0.19598885 -0.00289578 69 55 129
0.05171212 0.19615205 -0.00173712 69 56 130
0.14803769 0.21189870 -0.00078561 68 57 131
-0.06027503 -0.05986399 -0.00308705 69 55 129
0.00810486 -0.04145917 0.00983599 66 65 134
0.11612097 -0.22791876 -0.00127862 68 57 131
0.08416971 0.18814555 -0.00137130 68 57 131
0.02873734 -0.04108900 0.04393085 54 93 141
0.05968298 -0.22782458 -0.00191309 69 56 130
-0.00361937 0.17203644 -0.00237047 69 56 130
-0.05992768 -0.21217264 -0.00324572 69 55 129
-0.02825770 -0.33203387 -0.00289756 69 55 129
-0.02839276 -0.13987130 -0.00283958 69 55 129
0.08654901 0.02796588 0.04389842 54 93 141
0.05987262 0.22008730 -0.00163961 69 56 130
-0.00429386 0.10002622 -0.00244296 69 56 130
-0.18745515 -0.08451059 -0.00450686 69 53 129
0.16885853 -0.28860855 -0.00103857 68 57 131
0.07626628 -0.10807792 -0.00166221 69 56 130
-0.08351523 -0.20417771 -0.00351816 69 55 129
0.01446306 0.07972905 0.04376096 54 92 141
-0.11668471 0.14801568 -0.00362629 69 55 129
0.12382301 -0.12389319 -0.00112809 68 57 131
-0.09190210 0.18011062 -0.00323083 69 55 129
0.07586679 -0.30018842 -0.00179737 69 56 130
-0.07586039 -0.17988525 -0.00336066 69 55 129
-0.08141365 -0.01185613 0.03631846 57 86 140
0.17190209 0.18823363 -0.00054299 68 57 131
0.04478498 0.16387190 0.06803013 46 110 142
0.08664162 0.06023255 0.01985845 62 74 137
-0.11712627 0.21091548 -0.00358085 69 55 129
-0.05200634 -0.18832965 -0.00312915 69 55 129
0.13964280 -0.23600313 -0.00109353 68 57 131
-0.11584159 -0.14806111 -0.00378395 69 55 129
0.13183701 0.03582444 -0.00098760 68 57 131
0.00509979 0.27386835 0.17423564 47 180 124
0.06916930 0.21985932 0.12449376 32 147 140
-0.08377827 -0.30791271 -0.00348031 69 55 129
-0.18865925 -0.38012055 -0.00468896 69 53 129
-0.04899952 0.21103285 0.07701968 44 115 142
-0.17217463 -0.06803893 -0.00432070 69 53 129
0.18814984 0.02022990 -0.00036273 68 57 131
-0.08149265 0.01161507 0.02793897 60 80 139
0.07207114 0.24698092 0.11990359 33 144 141
-0.05968037 -0.31580916 -0.00316626 69 55 129
0.17996821 -0.25209877 -0.00073526 68 57 131
-0.03657316 0.14043835 -0.00276569 69 56 130
-0.00862095 -0.04151573 0.03088455 59 82 139
-0.08366204 0.31603089 -0.00319837 69 55 129
-0.18104698 -0.15595189 -0.00447088 69 53 129
-0.17094724 -0.19597274 -0.00440202 69 53 129
0.17996225 0.12391666 -0.00025293 68 57 131
-0.17193270 -0.10059610 -0.00436196 69 53 129
-0.02037904 -0.05970357 -0.00268110 69 56 130
-0.12477132 0.13209578 -0.00369885 69 55 129
0.02822855 -0.06802728 -0.00217020 69 56 130
-0.06749034 -0.08402753 -0.00310536 69 55 129
-0.07515192 -0.04225203 0.02038459 62 74 137
-0.06713884 -0.01440843 0.00005521 68 58 131
-0.06595705 0.26105529 -0.00299733 69 55 129
-0.14035639 -0.39574519 -0.00417144 69 55 129
0.05201022 0.23581003 0.13790852 30 156 137
0.19467977 0.06030500 0.00008178 68 58 131
-0.08143228 0.04440031 0.01327582 64 69 136
0.18006313 -0.01209342 -0.00029595 68 57 131
-0.08148941 -0.03555049 0.04370101 54 92 141
0.09212978 -0.06000190 -0.00147315 69 56 130
-0.12343675 -0.06800817 -0.00378699 69 55 129
-0.01173693 0.01188282 0.04059390 55 90 140
-0.02645230 0.26564115 0.13769408 30 156 137
0.19701703 -0.07666582 0.00003913 68 58 131
-0.10885744 0.17997704 -0.00350521 69 55 129
-0.09934707 -0.26782280 -0.00363868 69 55 129
0.19668610 -0.03676681 0.00005159 68 58 131
-0.08418711 -0.35624608 -0.00362530 69 55 129
-0.03788464 0.06052365 -0.00002779 68 57 131
-0.05152474 -0.13193296 -0.00314559 69 55 129
0.07127672 0.23514232 0.09332191 39 127 142
-0.03680211 -0.04174473 0.04399475 54 93 141
0.05217469 0.25290793 0.11089437 35 138 141
0.10819156 0.22002293 -0.00109341 68 57 131
-0.09204154 0.14770441 -0.00339546 69 55 129
-0.19577086 -0.27594098 -0.00471225 69 53 129
-0.11552255 0.11609763 -0.00359080 69 55 129
0.08398564 -0.21215592 -0.00165159 69 56 130
-0.01913495 0.00174146 0.00038581 68 58 131
-0.15644871 -0.29160729 -0.00428469 69 53 129
-0.14822255 -0.26815310 -0.00417105 69 55 129
-0.01241044 0.27594465 -0.00239345 69 56 130
0.08431983 -0.17213713 -0.00162012 69 56 130
0.04383608 0.07997025 0.03734291 56 88 140
-0.01986061 -0.17213413 -0.00274169 69 56 130
-0.04443746 -0.29199323 -0.00319319 69 55 129
0.08493952 0.08484840 -0.00129236 68 57 131
0.09261063 0.14797208 -0.00131827 68 57 131
0.11573419 -0.06797569 -0.00116801 68 57 131
-0.06580565 0.19875011 0.09695309 38 129 142
0.12371107 0.12427554 -0.00099261 68 57 131
-0.03560434 -0.16384488 -0.00296081 69 55 129
-0.12351945 -0.32410929 -0.00396690 69 55 129
-0.13928308 0.09994631 -0.00388398 69 55 129
-0.17916568 -0.17243499 -0.00448895 69 53 129
-0.19552195 -0.14776298 -0.00461085 69 53 129
-0.03636916 -0.21997252 -0.00301872 69 55 129
-0.15578760 -0.33173648 -0.00430595 69 53 129
0.14817618 -0.10789546 -0.00080556 68 57 131
-0.02661142 0.18037078 -0.00261117 69 56 130
0.13178898 -0.05183402 -0.00103427 68 57 131
0.02815412 -0.15621282 -0.00224584 69 56 130
-0.06786332 0.32428831 -0.00304358 69 55 129
-0.19611153 -0.18027656 -0.00463023 69 53 129
0.01994660 -0.13998790 -0.00228293 69 56 130
-0.08181848 -0.00383813 0.05829490 49 103 142
0.08666967 -0.01997058 0.00379075 67 61 132
0.01312903 0.07957664 0.01495218 64 70 136
0.01235888 -0.33194271 -0.00250932 69 56 130
0.03541345 0.19611271 -0.00188155 69 56 130
-0.09129238 -0.23602772 -0.00354295 69 55 129
-0.05958754 -0.39574575 -0.00331327 69 55 129
0.08664067 -0.03601145 0.01207755 65 68 135
-0.14814985 -0.34779739 -0.00420231 69 55 129
0.09964311 -0.20400847 -0.00148708 69 56 130
0.02689453 -0.04117704 0.02708384 60 80 139
0.18792523 -0.10795305 -0.00036878 68 57 131
0.10839576 -0.14802332 -0.00133000 68 57 131
0.08614007 0.01228914 0.05984178 49 104 142
-0.13295934 -0.37992916 -0.00408059 69 55 129
-0.09173737 -0.05990774 -0.00338579 69 55 129
-0.03592948 0.24353115 -0.00267350 69 56 130
-0.05176692 -0.11581562 -0.00312615 69 55 129
-0.19579847 0.16397607 -0.00445150 69 53 129
0.02011820 0.27612582 -0.00201018 69 56 130
-0.06010205 -0.15559204 -0.00315470 69 55 129
0.08667058 0.01983344 0.01985198 62 74 137
-0.05175151 -0.24397998 -0.00312771 69 55 129
0.06821163 0.16376695 -0.00156265 69 56 130
0.18017045 -0.09206810 -0.00038391 68 57 131
-0.08151150 0.05228448 0.04441635 54 93 141
-0.06798065 0.23031700 0.12926382 31 150 139
0.16401999 -0.21217905 -0.00091877 68 57 131
0.19518420 -0.20405869 -0.00053956 68 57 131
0.01200434 -0.18808919 -0.00243860 69 56 130
0.13196804 0.15608768 -0.00085844 68 57 131
0.05217510 0.10797292 -0.00180573 69 56 130
-0.13220401 -0.26810744 -0.00400259 69 55 129
-0.14770143 -0.08409365 -0.00404854 69 55 129
0.13983977 -0.12401089 -0.00102414 68 57 131
0.08664538 0.08177985 0.02816572 60 80 139
0.15616295 0.01197786 -0.00058198 68 57 131
-0.14736465 -0.15593122 -0.00411128 69 55 129
0.13187540 0.14009465 -0.00088668 68 57 131
-0.05981696 0.15599099 -0.00297226 69 55 129
0.16410477 -0.07607832 -0.00076298 68 57 131
0.13206483 -0.26010785 -0.00115802 68 57 131
-0.13990788 0.15605886 -0.00382611 69 55 129
-0.02810030 -0.31596088 -0.00286436 69 55 129
-0.09998062 -0.10810878 -0.00356495 69 55 129
-0.08168649 0.06021147 0.05844272 49 103 142
-0.00422909 -0.21201135 -0.00261356 69 56 130
0.06047844 -0.11619137 -0.00186282 69 56 130
0.14802739 -0.05994371 -0.00083077 68 57 131
0.18003824 -0.15596743 -0.00072902 68 57 131
0.12402090 0.01194569 -0.00105437 68 57 131
0.18794023 -0.14004581 -0.00038542 68 57 131
0.01191769 -0.09983902 -0.00236870 69 56 130
-0.05212673 -0.34797388 -0.00323183 69 55 129
-0.01303326 0.07941878 0.03630574 57 86 140
-0.10786586 -0.25230697 -0.00377028 69 55 129
0.01183412 -0.24399272 -0.00250356 69 56 130
-0.10833552 -0.17997427 -0.00372183 69 55 129
0.18810685 -0.17198306 -0.00060155 68 57 131
0.19521344 -0.22007641 -0.00040605 68 57 131
-0.18013000 -0.21198778 -0.00449871 69 53 129
0.11624534 -0.21205431 -0.00126133 68 57 131
0.06795800 0.11595266 -0.00159822 69 56 130
0.14797138 0.16406210 -0.00057674 68 57 131
0.19564170 0.16368426 0.00011321 68 58 131
-0.08143026 0.07501313 0.02813368 60 80 139
-0.19588374 -0.11572091 -0.00455369 69 53 129
0.05219224 0.17165354 -0.00175199 69 56 130
0.09192842 -0.14018057 -0.00151360 69 56 130
-0.03849145 0.07902382 0.01221051 65 68 135
-0.18031150 -0.29997867 -0.00455468 69 53 129
-0.07580596 -0.33972654 -0.00338213 69 55 129
-0.01208825 0.04204426 0.04066929 55 90 140
-0.01948026 0.02789119 0.04060281 55 90 140
0.19500548 0.09199896 -0.00029741 68 57 131
0.05240656 0.13975258 -0.00178262 69 56 130
0.04389120 -0.10007552 -0.00201363 69 56 130
-0.10759854 -0.12398736 -0.00363568 69 55 129
0.13184044 -0.09205095 -0.00103439 68 57 131
0.01300846 -0.04123915 0.04457526 54 93 141
0.08658277 -0.00396250 0.04376391 54 92 141
-0.19544570 -0.30817449 -0.00472794 69 53 129
0.08605164 -0.02008896 0.05968072 49 104 142
-0.00375493 0.15633035 -0.00236269 69 56 130
-0.19572589 0.13219258 -0.00440024 69 53 129
-0.04335465 0.25801077 0.14837846 32 163 134
0.12415278 -0.14009982 -0.00115166 68 57 131
-0.01111842 -0.04164711 0.01214339 65 68 135
0.05183161 -0.21202198 -0.00202430 69 56 130
0.02800575 -0.32396573 -0.00233121 69 56 130
0.17223258 0.02784679 -0.00049015 68 57 131
-0.01967461 0.20398349 -0.00250821 69 56 130
0.10776316 -0.29181650 -0.00138534 68 57 131
0.08377568 0.20410462 -0.00140466 68 57 131
0.08397967 -0.08407820 -0.00155510 69 56 130
0.11587177 -0.01982818 -0.00117344 68 57 131
0.02029346 0.11594961 -0.00213694 69 56 130
-0.03222424 -0.04186850 0.01529619 64 70 136
0.15643536 -0.13989246 -0.00067696 68 57 131
-0.13144940 -0.22783643 -0.00398801 69 55 129
-0.17924434 0.36622536 -0.00409173 69 55 129
-0.04410226 -0.38022888 -0.00309986 69 55 129
-0.00461542 -0.22813730 -0.00262838 69 56 130
0.08649234 0.08158795 0.04369572 54 92 141
0.12399540 0.25187853 -0.00091084 68 57 131
-0.13260515 -0.19628090 -0.00394644 69 55 129
-0.14082959 -0.29954776 -0.00413752 69 55 129
-0.06041258 0.11611047 -0.00295367 69 55 129
-0.13203806 -0.34769857 -0.00407904 69 55 129
0.05240996 0.25204563 -0.00170341 69 56 130
0.10034871 0.08401462 -0.00123976 68 57 131
-0.15651691 -0.09995726 -0.00421082 69 55 129
-0.00361287 -0.06007940 -0.00249146 69 56 130
0.08660709 0.00387598 0.01191861 65 68 135
0.06035523 0.26795313 -0.00161472 69 56 130
-0.16357876 -0.22793537 -0.00436184 69 53 129
0.08345488 -0.33132187 -0.00171188 69 56 130
-0.04257260 -0.04188593 0.02842285 59 81 139
-0.01671270 0.07925507 0.01240113 65 68 135
-0.00707396 -0.02787374 0.00048636 68 58 131
0.05312236 0.20559452 0.11468896 34 141 141
-0.11538570 -0.22021310 -0.00380688 69 55 129
-0.07622169 0.21709129 0.10515279 36 134 142
-0.03567624 -0.34816623 -0.00299507 69 55 129
0.07651006 0.21998505 -0.00143101 69 56 130
-0.06712749 0.08096538 0.06023716 49 104 142
0.06041731 0.20353799 0.07676411 44 115 142
-0.08148252 0.02002467 0.04370260 54 92 141
-0.02002299 0.06010678 0.00041851 68 58 131
-0.05104914 -0.04279615 0.06003393 49 104 142
0.05145770 -0.08398166 -0.00189042 69 56 130
-0.17202872 0.25201550 -0.00414638 69 55 129
0.05943416 -0.24391849 -0.00190802 69 56 130
-0.14861314 -0.21210781 -0.00414749 69 55 129
-0.10016164 -0.20396191 -0.00368101 69 55 129
-0.07561057 0.25499991 0.13644610 30 155 138
0.07580816 0.26821783 -0.00145498 69 56 130
-0.04102825 0.21329691 -0.00276774 69 56 130
-0.08140486 0.01206609 0.01305153 64 69 136
-0.04984772 0.18805021 0.07598889 44 114 142
-0.06030199 0.25690612 0.11001637 35 137 142
-0.09215593 0.34024656 -0.00315081 69 55 129
-0.06784257 -0.04210007 0.03589667 57 86 140
0.00415788 0.26030317 0.16394447 39 173 129
-0.19544542 -0.22803201 -0.00464049 69 53 129
-0.01348805 -0.38503423 -0.00273750 69 56 130
-0.03554698 0.30787727 -0.00260379 69 56 130
0.05736103 0.18815221 0.08415546 42 120 142
0.09961944 -0.01213449 -0.00137973 68 57 131
-0.16456847 0.36565995 -0.00391843 69 55 129
-0.04804974 0.24320130 0.10832697 35 136 142
-0.05134795 0.16412441 0.06778212 46 110 142
0.09986345 -0.30819580 -0.00157664 69 56 130
0.13745126 -0.30491129 -0.00120003 68 57 131
-0.02299999 0.27442676 0.12661748 31 148 140
-0.01974178 0.30786759 -0.00243402 69 56 130
-0.11560046 0.19605103 -0.00353450 69 55 129
0.19488907 0.13207445 -0.00027971 68 57 131
-0.05986600 0.06045229 -0.00012898 68 57 131
-0.15618338 0.14815965 -0.00402649 69 55 129
0.19516262 0.21931916 -0.00035388 68 57 131
-0.13274141 0.21191852 -0.00370870 69 55 129
-0.01258665 0.24489900 0.16602190 40 174 128
0.03771396 0.22141723 0.12634505 31 148 140
0.00881592 0.02805336 0.01325474 64 69 136
-0.00367810 -0.36402032 -0.00267641 69 56 130
-0.08037094 0.07533974 -0.00024141 68 57 131
0.03631655 0.15595034 0.05209478 51 98 141
-0.06830538 -0.04287460 0.05932369 49 104 142
-0.16432163 0.23615780 -0.00406896 69 55 129
-0.04815054 0.25913048 0.11683303 33 142 141
-0.06529182 0.22785297 0.11233690 34 139 141
-0.14848422 0.22011030 -0.00390882 69 55 129
-0.08146249 0.06001522 0.01232603 65 68 135
-0.06743228 -0.02804179 0.00005304 68 58 131
-0.04408605 -0.01077198 0.00024368 68 58 131
0.05345052 0.24511622 0.12192613 32 146 140
0.03304626 -0.36045721 -0.00241666 69 56 130
-0.02260569 -0.04156090 0.04852220 52 96 141
0.08683811 0.06784538 -0.00081735 68 57 131
-0.08101702 0.04771537 -0.00021178 68 57 131
-0.08057187 -0.01247400 -0.00040549 68 57 131
0.05117029 0.18005332 0.06796840 46 110 142
0.04281685 0.20464627 0.10615937 36 135 142
-0.06030476 0.18636222 0.08659455 41 122 142
0.12177709 -0.31320027 -0.00137410 68 57 131
0.18015870 -0.26792929 -0.00054597 68 57 131
0.10012003 0.05195387 -0.00128429 68 57 131
0.02233294 0.25898209 0.14015752 31 158 137
0.06854817 0.08683236 -0.00163508 69 56 130
-0.05514751 0.26528996 0.13768093 30 156 137
-0.05546673 0.07894257 0.03312070 58 84 140
0.01232965 0.29182389 -0.00212939 69 56 130
0.13991731 -0.29200518 -0.00111292 68 57 131
0.18147714 0.17933068 0.00003353 68 58 131
-0.05542417 0.22345975 0.12356298 32 146 140
0.05187602 -0.33967766 -0.00206691 69 56 130
0.00001889 -0.04139608 0.04065424 55 90 140
-0.08645621 0.20853274 0.11017281 35 138 141
0.08701570 0.03580513 -0.00116650 68 57 131
-0.04765901 0.24209553 0.13680317 30 155 138
0.09202105 0.26005298 -0.00127202 68 57 131
-0.06791566 0.10008764 -0.00312655 69 55 129
-0.00387572 0.25761855 0.13278830 31 153 138
-0.06479702 0.07883709 0.02247216 62 76 138
0.10827129 0.25215316 -0.00105075 68 57 131
0.00864553 0.00643770 0.02770050 60 80 139
-0.07201356 0.17608550 0.07924002 43 117 142
0.19504286 -0.27366188 -0.00033453 68 57 131
0.06066122 0.22830717 0.13204695 31 152 139
-0.04773612 0.23476878 0.09502737 39 128 142
0.04556449 0.18534882 0.08758384 41 123 142
-0.15566745 0.09543490 -0.00420295 69 55 129
-0.00656152 0.00190082 0.00047757 68 58 131
0.06446368 -0.34415206 -0.00198677 69 56 130
0.03607326 0.19655286 0.09891939 38 130 142
-0.11105460 0.09548098 -0.00349167 69 55 129
-0.16702324 0.16828500 -0.00430256 69 53 129
0.17578411 0.23226814 0.00000310 68 58 131
-0.06146566 0.20893538 0.10274478 37 132 142
-0.02026282 -0.04276458 0.06072627 48 105 142
-0.07625425 0.22138314 0.12199225 32 146 140
0.18148914 0.14017266 0.00001582 68 58 131
0.06892610 0.22009706 0.09178835 39 126 142
-0.03328615 -0.03095751 -0.00003816 68 57 131
-0.13720298 0.16807298 -0.00396314 69 55 129
-0.19607276 -0.07580856 -0.00460000 69 53 129
-0.06813655 0.07495894 -0.00024624 68 57 131
0.00880187 0.02009963 0.04042777 55 90 140
-0.06814564 0.05091612 -0.00023822 68 57 131
-0.14108951 0.12404471 -0.00385893 69 55 129
0.01189049 0.25726613 0.14624022 31 161 135
0.19125818 -0.06592198 0.00001302 68 58 131
-0.09955978 -0.15586354 -0.00356811 69 55 129
0.07248886 0.25729245 0.11348163 34 140 141
-0.07614397 0.24167611 0.13767077 30 156 137
-0.01876831 0.27528375 0.17413232 47 180 124
-0.11622546 -0.09237386 -0.00375109 69 55 129
0.05143543 -0.04081229 0.05190679 51 98 141
0.09241424 -0.11587247 -0.00146844 69 56 130
-0.09943124 -0.17156474 -0.00353992 69 55 129
-0.09183127 -0.37957093 -0.00363270 69 55 129
-0.06339526 0.25038737 0.11958644 33 144 141
0.06763393 -0.05996052 -0.00173770 69 56 130
-0.04379256 0.10797534 -0.00285440 69 55 129
-0.00478043 -0.34015644 -0.00269994 69 56 130
0.07079392 0.23581447 0.12385458 32 146 140
-0.02435720 0.07930852 0.03997734 55 90 140
-0.05635536 0.26047602 0.12686187 31 148 140
0.03573565 0.17906843 0.08526447 41 121 142
-0.08141704 -0.03605463 0.01241935 65 68 135
-0.11561693 -0.38738254 -0.00390976 69 55 129
-0.17918245 -0.26806414 -0.00451724 69 53 129
0.01243055 0.22001666 -0.00213448 69 56 130
0.00375278 -0.32380429 -0.00260521 69 56 130
-0.18022452 0.10828939 -0.00430197 69 53 129
0.02762726 -0.21983938 -0.00226092 69 56 130
-0.09969284 -0.09183650 -0.00351451 69 55 129
-0.05170057 0.14006899 -0.00298272 69 55 129
0.01224344 0.23582189 -0.00211160 69 56 130
0.03617237 -0.34827545 -0.00228316 69 56 130
0.14025450 -0.02805869 -0.00087570 68 57 131
-0.05230783 -0.26805884 -0.00326543 69 55 129
0.02781461 -0.23615663 -0.00227068 69 56 130
-0.17128116 -0.12413718 -0.00434501 69 53 129
0.03037044 0.16083053 0.07066327 45 112 142
-0.10718099 -0.28404462 -0.00374722 69 55 129
-0.02824611 0.13201724 -0.00265999 69 56 130
0.09981769 -0.17190421 -0.00145629 69 56 130
-0.01297880 0.08124044 0.06082090 48 105 142
-0.10771179 -0.30000603 -0.00381322 69 55 129
-0.06010657 -0.23580626 -0.00316572 69 55 129
0.06067030 0.19845319 0.10927761 35 137 142
-0.06528069 0.28559098 -0.00310592 69 55 129
0.18023007 -0.18797527 -0.00037833 68 57 131
-0.08431278 -0.13991024 -0.00349025 69 55 129
-0.01231302 -0.13980697 -0.00266402 69 56 130
-0.02845909 -0.36373881 -0.00300618 69 55 129
0.08381950 0.10815369 -0.00142509 69 56 130
0.03621058 0.28375089 -0.00188928 69 56 130
-0.07177061 0.07887051 0.04980844 52 97 141
-0.03820291 0.07369831 -0.00001772 68 57 131
-0.14741409 -0.24395674 -0.00412828 69 55 129
-0.04373423 -0.32387561 -0.00309170 69 55 129
-0.08447345 0.10815384 -0.00323344 69 55 129
-0.18041724 0.26000851 -0.00421470 69 55 129
-0.09173573 -0.39616978 -0.00362930 69 55 129
-0.02744063 -0.38811985 -0.00297846 69 55 129
-0.17955601 -0.35632876 -0.00459388 69 53 129
0.09237426 -0.32395822 -0.00161589 69 56 130
-0.07594671 -0.09190235 -0.00331256 69 55 129
-0.10854828 -0.35611725 -0.00384746 69 55 129
-0.04389833 0.29198980 -0.00274511 69 56 130
-0.15570094 -0.07577562 -0.00418198 69 55 129
-0.18960364 0.29043695 -0.00426654 69 53 129
-0.04286614 0.07907104 0.02764828 60 80 139
-0.04374090 -0.17202160 -0.00299703 69 55 129
-0.18733518 0.15614159 -0.00434152 69 53 129
0.15593398 -0.20396028 -0.00095679 68 57 131
-0.10674258 0.34095305 -0.00333414 69 55 129
0.08659048 0.02824146 0.02773822 60 80 139
0.07481509 -0.04056343 0.05590886 50 101 142
0.15590610 -0.24402186 -0.00094252 68 57 131
-0.02198027 0.25820273 0.14670089 31 161 135
0.10002979 -0.04395213 -0.00135851 68 57 131
0.07624021 -0.05220466 -0.00161380 69 56 130
0.11600863 0.19599541 -0.00100392 68 57 131
-0.05027139 0.17563999 0.08025146 43 117 142
-0.12422328 -0.28373602 -0.00397769 69 55 129
0.02168044 -0.04111334 0.05301740 51 99 141
0.11598662 0.06804467 -0.00111856 68 57 131
0.08652429 0.05178966 0.03606729 57 86 140
0.10011104 -0.09181704 -0.00137642 68 57 131
-0.02748124 -0.08405228 -0.00280843 69 56 130
0.10000586 0.02014361 -0.00132516 68 57 131
0.15609442 0.22777320 -0.00065252 68 57 131
0.14011158 0.08390360 -0.00077965 68 57 131
0.17983082 0.06796629 -0.00031172 68 57 131
0.18024828 -0.22794054 -0.00046174 68 57 131
0.08421810 0.15591580 -0.00137708 68 57 131
0.15587722 0.14007464 -0.00045798 68 57 131
-0.04411735 -0.08395833 -0.00299665 69 55 129
-0.05867953 0.07898716 0.04414086 54 93 141
-0.04821694 0.25179741 0.12597480 31 148 140
0.10015821 0.23600233 -0.00115578 68 57 131
0.13205023 -0.19598883 -0.00110135 68 57 131
0.09973984 0.00410365 -0.00136999 68 57 131
-0.07618853 -0.12397000 -0.00329115 69 55 129
-0.10015525 -0.24382842 -0.00368828 69 55 129
-0.16502208 0.14002462 -0.00411248 69 55 129
-0.14093262 -0.12392640 -0.00400039 69 55 129
-0.05197566 -0.16395044 -0.00299580 69 55 129
0.08667706 -0.01203866 0.01203956 65 68 135
0.14828400 0.06001541 -0.00077101 68 57 131
-0.02046366 -0.23593546 -0.00276765 69 56 130
-0.05978846 -0.12397405 -0.00307032 69 55 129
-0.01955716 -0.29203063 -0.00280169 69 56 130
0.10834118 0.04380368 -0.00119696 68 57 131
-0.01864118 -0.04168215 0.02135425 62 76 138
0.12393592 -0.07611942 -0.00112862 68 57 131
0.05987894 -0.32383215 -0.00198455 69 56 130
0.05228745 -0.27595517 -0.00201038 69 56 130
-0.04961924 -0.04203498 0.01362450 64 69 136
0.13190128 0.06001175 -0.00091687 68 57 131
0.09213202 0.11598685 -0.00138045 68 57 131
-0.15688775 -0.36411285 -0.00436344 69 53 129
-0.01939527 -0.01200072 0.00038547 68 58 131
0.14804782 0.10812506 -0.00065317 68 57 131
-0.09984751 -0.06803092 -0.00355505 69 55 129
-0.06044200 -0.34015486 -0.00330966 69 55 129
0.14011425 -0.17189252 -0.00097938 68 57 131
0.15593173 -0.09210879 -0.00091325 68 57 131
0.06839626 -0.27594116 -0.00185719 69 56 130
-0.06792516 -0.27578336 -0.00327190 69 55 129
0.18018700 0.00407848 -0.00036970 68 57 131
0.07602036 -0.25181934 -0.00173445 69 56 130
0.13212085 0.11592931 -0.00085726 68 57 131
0.13194831 0.23604241 -0.00083487 68 57 131
0.14811189 -0.21981823 -0.00085345 68 57 131
0.05975465 -0.19609670 -0.00190944 69 56 130
-0.01952678 -0.18809080 -0.00278923 69 56 130
0.15614034 -0.17199548 -0.00080707 68 57 131
0.14815256 0.23594353 -0.00057483 68 57 131
0.16382891 0.15603387 -0.00032263 68 57 131
0.05208549 -0.30003437 -0.00205898 69 56 130
