ply
format ascii 1.0
element vertex 1024
property float x
property float y
property float z
property uchar red
property uchar green
property uchar blue
end_header
-0.19845784 -0.31897333 -0.01925476 72 41 121
0.03743114 0.25643632 0.25151151 165 219 54
0.18054880 -0.07585555 -0.01847296 72 41 121
-0.19592363 0.07626125 -0.01501002 71 45 123
0.16943222 0.23611069 -0.02905613 72 32 113
-0.05212354 -0.12636730 0.04152551 55 91 141
0.01944976 0.08431637 0.02875669 59 81 139
0.00194357 -0.30500275 -0.01820642 71 42 122
-0.01670808 0.28951997 -0.01519987 71 45 123
-0.07244296 0.18617636 0.13345516 31 153 138
-0.19918990 -0.10082087 -0.02537988 72 36 117
0.08187795 0.21173853 0.10047802 37 131 142
0.17222987 0.08365729 -0.01879417 72 41 121
0.11553799 -0.21142446 -0.02243586 72 38 119
-0.09204060 -0.00659608 -0.00080562 68 57 131
0.05438039 -0.05049512 0.00932327 66 65 134
-0.10129727 -0.22827001 -0.01746472 71 42 122
0.05481349 0.19474563 -0.02291297 72 37 118
-0.11144157 0.14205520 -0.01524166 71 45 123
0.01490784 -0.19917148 0.00219385 68 59 132
-0.02299267 0.18543983 0.04757372 53 95 141
0.02917790 0.27493420 0.15586093 34 168 132
-0.04334553 0.21047217 0.22092348 110 206 88
0.08879095 0.03420354 -0.01555242 71 44 122
0.08371500 0.28367731 -0.02301306 72 37 118
-0.18767238 -0.01230612 -0.01218470 71 47 125
0.07534594 -0.13218346 -0.01968542 72 41 121
-0.00431901 0.01164112 -0.01405740 71 46 124
-0.19633912 -0.18732862 -0.02110795 72 40 120
-0.02971828 -0.07136945 -0.01656227 71 44 122
0.09991713 0.12383508 -0.01741316 71 42 122
-0.07769148 -0.30767918 0.00107479 68 58 131
0.16420788 0.00339411 -0.01665617 71 44 122
0.05576760 0.15582901 0.04964385 52 97 141
-0.02447182 0.24328747 0.10636508 36 135 142
0.16086797 -0.14945163 -0.03010005 72 31 112
-0.08772397 0.06774437 -0.01644349 71 44 122
0.17662580 0.16187277 -0.02288140 72 37 118
0.06370527 -0.26142654 -0.00802323 70 51 127
-0.13567619 -0.35600126 -0.02151636 72 38 119
-0.07280926 0.25056982 0.16657369 40 174 128
-0.17104195 -0.25207597 -0.01267288 71 47 125
-0.01027438 -0.13735013 -0.02008007 72 40 120
-0.05138272 -0.18508551 0.00758658 66 64 134
0.11663389 -0.05998768 -0.01274793 71 46 124
-0.02927039 0.12602107 0.07402603 44 113 142
0.03809158 0.13220426 -0.01232839 71 47 125
-0.14827803 0.03625111 -0.01187414 71 47 125
-0.03956252 -0.24173643 -0.01495510 71 45 123
0.01819187 0.20798005 0.21401840 99 203 95
0.11623216 0.18814602 -0.02153479 72 38 119
0.01130780 0.23590986 -0.01468515 71 45 123
0.08246422 0.25732285 0.14000750 31 158 137
-0.03030989 0.06491590 -0.01314175 71 46 124
-0.00974836 0.23329733 0.16131721 37 172 130
-0.14011133 0.09188427 -0.02039372 72 40 120
0.03529894 0.05222772 -0.01918524 72 41 121
0.12175050 0.24975701 0.09229214 39 126 142
-0.13909772 -0.29661489 -0.00680505 70 52 128
-0.07289308 -0.10256448 -0.00609411 70 52 128
0.05313312 -0.16465497 0.01747904 63 72 137
0.11670652 0.24161680 -0.02380922 72 37 118
0.03601582 0.30534586 -0.02212535 72 38 119
0.01315856 -0.25144693 -0.01261790 71 47 125
-0.04252651 -0.02189670 -0.00547917 69 53 129
0.12587386 -0.11453184 -0.01583195 71 44 122
0.05195224 -0.00429052 -0.01268760 71 47 125
0.06453031 -0.21059182 -0.00773613 70 51 127
-0.03726054 0.17241476 0.09946960 38 130 142
-0.00739811 -0.10896202 0.05789844 49 103 142
-0.13777703 -0.02035470 -0.01708906 71 42 122
-0.00822751 0.23548999 0.24737690 157 217 59
0.08061773 -0.09418567 0.01267456 65 68 135
-0.18100314 0.12347279 -0.01192454 71 47 125
0.04644032 0.22261412 0.13335508 31 153 138
0.11632558 -0.16367076 -0.00973575 70 50 126
0.11389878 -0.01078763 -0.01557850 71 44 122
-0.17276302 -0.06264170 -0.04112425 72 20 103
0.16397589 -0.19808893 -0.02526680 72 36 117
0.00423423 -0.03596117 -0.00511882 69 53 129
0.06940475 0.24846193 0.21579646 101 203 94
0.13069946 0.05856866 -0.02007753 72 40 120
0.04705384 0.17937870 0.09193829 39 126 142
-0.06018489 0.02811417 -0.01040997 70 48 126
0.14778534 0.12401547 -0.02170888 72 38 119
0.02551431 0.25316781 0.19720715 74 193 109
0.01358888 0.12877837 0.04056354 55 90 140
-0.07222378 -0.05493060 0.00766581 66 64 134
0.05990553 0.09187771 -0.01847457 72 41 121
0.05247517 0.24405816 -0.03230502 72 29 111
-0.03812468 -0.28786653 -0.00777587 70 51 127
0.01083502 -0.10256410 -0.00244995 69 56 130
0.07497738 0.19508263 0.06002444 49 104 142
-0.04791409 0.22183564 0.14402543 31 161 136
-0.10160884 -0.27403215 -0.01208693 71 47 125
0.08203700 0.26461104 0.08457587 42 120 142
-0.14204155 -0.22041036 -0.00667046 70 52 128
0.18486202 -0.03302590 -0.01648133 71 44 122
-0.19575481 0.03474702 -0.01320373 71 46 124
-0.08140332 -0.16133200 0.02339995 61 77 138
-0.19953421 -0.14659071 -0.01567851 71 44 122
-0.02674992 -0.14738761 0.01632347 63 71 136
-0.03115675 0.20889981 0.08038430 43 117 142
-0.05979207 0.24406084 0.08530091 41 121 142
0.17708312 0.04308365 -0.02273732 72 37 118
0.08382536 0.16387756 -0.01777367 71 42 122
-0.02943311 -0.10716580 0.00155486 68 59 132
0.15546104 0.19633774 -0.02211113 72 38 119
0.09999085 0.08393974 -0.01755260 71 42 122
0.17953749 -0.11581616 -0.01971517 72 41 121
0.08245660 -0.03515320 -0.01505237 71 45 123
0.08537378 0.21800427 -0.01281099 71 46 124
0.02015948 -0.00363368 0.01272145 64 69 136
-0.10745460 0.02787759 -0.00985366 70 50 126
-0.06075633 -0.13892917 -0.00169218 69 56 130
0.03707781 0.17016105 0.00041015 68 58 131
-0.19610001 -0.05019949 -0.01471873 71 45 123
0.14782082 -0.03602844 -0.01530763 71 45 123
0.02506679 0.26991698 -0.02359773 72 37 118
0.07578842 -0.13205302 0.01716179 63 72 137
0.07711238 -0.17249809 -0.00877818 70 50 126
-0.01128950 0.15498745 0.03140963 58 83 139
0.04069662 0.11167738 0.01785750 63 72 137
-0.02201629 -0.21421365 0.00074793 68 58 131
0.13324413 0.02308035 -0.01649094 71 44 122
-0.06769685 -0.26185301 -0.00643112 70 52 128
0.13210222 0.15589464 -0.02130487 72 38 119
-0.03544408 0.20376644 0.11580194 33 142 141
0.08880739 -0.23779039 -0.01447308 71 45 123
-0.14692186 0.13030769 -0.01662116 71 44 122
-0.02774066 0.00359532 0.01337317 64 69 136
-0.01349956 -0.17922029 0.01042896 65 66 135
0.09986784 -0.09209507 -0.01743941 71 42 122
-0.06747065 -0.22309695 -0.00758403 70 51 127
0.02343699 0.24100417 0.15731688 35 169 131
-0.12381162 0.05995192 -0.01443758 71 45 123
0.14689305 -0.08078852 -0.01567794 71 44 122
0.07647844 -0.06808904 -0.00923228 70 50 126
0.00908383 -0.06926541 -0.00789614 70 51 127
0.04280838 0.23035865 0.22600162 119 209 83
0.01778494 -0.16574170 0.00453734 67 62 133
-0.03406189 0.15619439 0.06036216 49 104 142
-0.13145308 -0.25214386 -0.00691520 70 52 128
-0.16433632 0.06613144 -0.01686857 71 44 122
0.02784500 0.01954334 -0.01446125 71 45 123
-0.00462391 0.24963076 0.13306169 31 153 138
0.00359083 0.04412247 -0.01521217 71 45 123
0.14010869 0.09219439 -0.01810891 71 42 122
0.06808684 0.06040613 -0.01691678 71 44 122
0.06310248 -0.10025372 -0.01405159 71 46 124
0.04138868 -0.23643506 -0.00709855 70 51 127
0.10272807 0.22738615 0.07889008 43 116 142
0.14719449 0.25821197 -0.02162584 72 38 119
-0.01019214 0.20868000 0.22980006 124 210 80
0.03427853 -0.27536142 -0.01233703 71 47 125
0.08378531 0.25180018 -0.02250015 72 38 119
-0.06336784 -0.01190531 0.01646793 63 71 136
0.06828980 0.12404358 -0.02019245 72 40 120
-0.16497611 -0.04185953 -0.01846369 72 41 121
-0.16106409 0.00752084 -0.01600188 71 44 122
0.11548392 0.27320713 -0.02574622 72 35 116
0.14733256 -0.17270261 -0.01364677 71 46 124
0.05230418 0.25130814 0.14989866 32 164 134
0.03979778 0.14463304 0.01867622 62 73 137
-0.00345733 -0.27624279 -0.00377969 69 55 129
0.07942566 0.24411228 0.10783028 35 136 142
0.05060428 -0.02079898 0.01769000 63 72 137
0.03505291 0.08390401 0.00199193 68 59 132
0.08405875 -0.00352416 -0.01710572 71 42 122
-0.10955670 0.08966920 -0.01791340 71 42 122
0.04678242 -0.18558283 -0.00728709 70 51 127
-0.01259393 0.25927648 -0.01795538 71 42 122
-0.04853439 0.14368060 0.08974314 40 124 142
-0.00142166 0.10024197 0.04385896 54 93 141
0.17651010 0.11307802 -0.02431653 72 36 117
-0.06619368 -0.07522544 -0.01642338 71 44 122
-0.05933318 0.05832110 -0.00968828 70 50 126
-0.05158738 -0.04917401 -0.01354123 71 46 124
-0.11800009 -0.20369677 -0.01179995 71 47 125
0.05175135 0.20398252 0.10779764 35 136 142
-0.00030851 0.24048555 0.18845439 63 188 115
0.03338289 0.21460380 -0.01925129 72 41 121
0.06043122 0.02806065 -0.01962282 72 41 121
-0.02856423 0.02804604 -0.01426575 71 45 123
-0.02247902 -0.13048913 0.04560285 53 94 141
-0.07259190 -0.28995857 -0.02132860 72 38 119
-0.08941405 0.22684661 0.16723490 41 175 127
-0.13159418 0.01221737 -0.01281272 71 46 124
0.04270346 0.25854495 0.22026862 110 206 88
0.13951404 0.21996881 -0.02031268 72 40 120
0.09220973 -0.19610763 -0.01693430 71 44 122
-0.05086366 -0.15712589 0.02782215 60 80 139
-0.11845728 0.11549602 -0.02445538 72 36 117
0.13772129 -0.14660689 -0.01535679 71 45 123
0.14121896 -0.20891923 -0.01309800 71 46 124
-0.06408095 0.17141175 0.11194831 34 139 141
-0.16496074 -0.30532604 -0.00506276 69 53 129
0.05170123 0.27576178 -0.02563769 72 35 116
0.00412419 -0.22623350 -0.00730973 70 51 127
0.10047670 -0.14022149 -0.01279363 71 46 124
-0.02687628 0.13367535 0.04690803 53 95 141
0.05993430 0.14913519 -0.01450560 71 45 123
0.07691241 0.22569416 0.12715659 31 149 139
0.05360691 -0.03383067 -0.01144213 71 47 125
0.15163581 -0.11871447 -0.02103426 72 40 120
0.02052301 0.23819077 0.24206118 147 215 65
-0.02874594 0.23744988 0.13435401 31 154 138
-0.07278105 0.21178879 0.15312773 33 166 133
0.03044555 -0.18271388 0.02033165 62 74 137
0.01599997 0.06571219 0.00133511 68 58 131
0.10805229 0.21465114 -0.02568146 72 35 116
-0.01794589 -0.05038879 -0.00610248 70 52 128
0.08528876 0.18998615 -0.01947720 72 41 121
0.09291411 0.20296805 0.07839013 43 116 142
-0.01236338 -0.08959121 -0.00927077 70 50 126
0.01221823 0.29228169 -0.02121664 72 38 119
-0.00518848 -0.01364225 0.00382613 67 61 132
-0.13247608 -0.23496208 -0.02609362 72 35 116
0.06223937 -0.14854820 -0.00476843 69 53 129
0.10818996 -0.03571613 -0.01313056 71 46 124
0.03482619 -0.21222270 -0.01210293 71 47 125
-0.03831103 0.20919630 0.05585684 50 101 142
-0.05038824 -0.09254906 0.00057393 68 58 131
0.10755887 0.14809170 -0.01847108 72 41 121
0.05891558 0.16501039 0.07460459 44 113 142
0.12782741 -0.18887916 -0.02084205 72 40 120
0.12389674 0.11587673 -0.01980414 72 40 120
0.14057030 -0.01191495 -0.01711941 71 42 122
-0.19876528 -0.07573333 -0.02795664 72 33 115
-0.01071410 -0.15608580 -0.00326477 69 55 129
0.15580022 0.05975022 -0.01927585 72 41 121
0.02233521 0.27363166 0.18296380 56 185 119
-0.07101822 0.00695872 -0.00229260 69 56 130
-0.11521721 -0.01082321 -0.01217939 71 47 125
0.09302044 0.05957550 -0.01686725 71 44 122
-0.03805074 0.18009712 0.07577495 44 114 142
-0.01914811 -0.25991660 -0.01392187 71 46 124
0.06956633 0.18707956 0.08535820 41 121 142
0.03842569 0.10762396 -0.01092355 70 48 126
0.15637806 0.14814046 -0.02072278 72 40 120
-0.04362444 0.01116568 -0.00411528 69 55 129
0.17450301 0.21151762 -0.02485402 72 36 117
-0.19393741 0.10061300 -0.01686791 71 44 122
0.03555952 0.14070374 0.04246644 54 92 141
-0.08426419 0.03553546 -0.01139342 71 47 125
-0.17219412 0.03187940 -0.00726476 70 51 127
-0.04211935 0.22782131 0.09951355 38 130 142
-0.15889329 0.11122990 -0.00747941 70 51 127
0.12268122 -0.08404226 -0.01529537 71 45 123
-0.08439213 -0.28436038 0.00189287 68 59 132
0.10872473 0.01273344 -0.01668812 71 44 122
0.15879087 -0.05744392 -0.01551011 71 45 123
-0.17101705 0.08899140 -0.01349558 71 46 124
0.15642220 0.02801931 -0.02047847 72 40 120
0.03029322 0.23377721 -0.03327370 72 28 110
-0.16432449 -0.01953694 -0.01013312 70 48 126
0.07731367 -0.05992021 0.01299809 64 69 136
0.07972047 0.23273116 0.08706217 41 122 142
0.01403786 0.31510091 -0.02696206 72 33 115
-0.08282733 -0.24382906 -0.00477991 69 53 129
0.09911352 -0.11549964 -0.01845147 72 41 121
0.15556291 0.17210266 -0.02305049 72 37 118
-0.03250670 0.22136243 0.23856971 139 214 70
0.16349906 -0.09917135 -0.02550219 72 35 116
0.02257591 0.06359744 0.03889224 56 89 140
-0.04091197 -0.12846300 0.00441762 67 62 133
-0.04447448 -0.22011912 -0.00728506 70 51 127
0.01988165 0.10748780 0.02898442 59 81 139
0.02899331 -0.00331517 -0.00985902 70 50 126
0.03188062 -0.02969391 0.00744909 66 64 134
-0.07352819 -0.08560818 0.00943863 66 65 134
-0.06707735 0.23389852 0.15034279 32 164 134
0.08354894 0.09984464 -0.01949021 72 41 121
0.16414449 -0.02007332 -0.01737281 71 42 122
-0.05084291 0.20234837 0.13260716 31 152 139
0.05624065 0.21664695 -0.02899271 72 32 113
0.04388623 0.07596599 -0.01729438 71 42 122
-0.04606615 -0.26879060 -0.01667162 71 44 122
0.05835686 0.29721820 -0.02608348 72 35 116
-0.01998837 -0.02840954 -0.00996605 70 48 126
0.06751031 -0.23343590 -0.00904470 70 50 126
-0.19942275 -0.12697980 -0.02638997 72 35 116
-0.10720941 -0.25255433 -0.00982518 70 50 126
0.08375831 0.14008956 -0.01919437 72 41 121
0.16110493 -0.07571009 -0.03207490 72 29 111
0.00339872 0.07583430 0.04163771 55 91 141
-0.06214170 -0.25164843 -0.02534766 72 36 117
-0.00415042 0.06413825 -0.00972235 70 50 126
-0.01469663 -0.13388865 0.00131736 68 58 131
-0.09346202 0.01209065 -0.01632316 71 44 122
0.07330099 0.25839627 0.16004896 37 171 130
0.17707691 0.13986610 -0.02250545 72 38 119
0.07175788 -0.11318921 0.00141538 68 59 132
0.01198774 0.21923859 0.23518932 134 213 73
0.03570190 0.23514648 0.20586216 86 198 103
-0.00789073 0.25665271 0.24180904 147 215 65
-0.18017699 0.05172871 -0.01183555 71 47 125
0.17778178 0.01993618 -0.02099313 72 40 120
-0.00501494 -0.11837160 -0.01073141 70 48 126
0.11491689 0.04354835 -0.02015728 72 40 120
0.09923857 0.25135240 0.08579042 41 121 142
-0.01964716 -0.23503686 -0.00949195 70 50 126
0.04199196 0.23538105 -0.01514866 71 45 123
0.07111458 -0.15308079 0.01567599 63 71 136
-0.05919868 0.21257393 0.20678355 88 199 101
0.06398240 0.17617624 0.05714592 49 102 142
-0.03286858 -0.17046852 0.01198873 65 68 135
0.14071847 -0.10037999 -0.02112448 72 40 120
0.00127203 0.27490652 -0.01467645 71 45 123
0.01613477 0.24641439 0.17657237 50 182 122
-0.05226494 0.18848726 0.11580997 33 142 141
0.09309122 0.23301774 -0.02530255 72 36 117
-0.15269327 -0.24515192 -0.00545326 69 53 129
-0.03679957 -0.13170786 0.02846483 59 81 139
0.17903402 -0.05308808 -0.01716321 71 42 122
-0.04446887 0.04396198 -0.01143900 71 47 125
0.00877723 -0.28195617 -0.01951592 72 41 121
0.07923758 -0.08892348 -0.00785530 70 51 127
0.06752930 -0.02000843 -0.01783463 71 42 122
0.06178380 0.16897675 -0.01953615 72 41 121
0.06332624 -0.05187958 -0.01002335 70 48 126
0.11952169 -0.14901212 -0.02451394 72 36 117
0.04820746 0.21542075 0.21302976 96 202 96
0.13888831 -0.06030322 -0.01950035 72 41 121
-0.01566181 0.16632995 0.04846830 52 96 141
-0.09998880 0.05176904 -0.01286244 71 46 124
0.06698298 0.24387431 0.13775264 30 156 137
0.17378873 0.18793625 -0.02530416 72 36 117
0.02937557 0.06875840 0.02019018 62 74 137
-0.06950071 -0.13364264 0.03386424 58 84 140
0.05095023 0.14319137 0.06481735 47 107 142
0.09724158 -0.22015046 -0.02175532 72 38 119
0.13401215 0.19753470 -0.02416500 72 36 117
0.03389936 0.12244867 0.03389378 57 85 140
0.04387686 -0.25752401 -0.00726294 70 51 127
-0.04918270 0.00212010 0.01297416 64 69 136
-0.01870671 0.25634548 0.12058920 33 145 140
-0.00861138 0.23975109 -0.01686233 71 44 122
-0.06100797 -0.17066529 0.01752149 63 72 137
0.01203525 -0.15184717 -0.00831750 70 51 127
0.08447331 -0.15414873 -0.00880068 70 50 126
-0.06592789 -0.03841532 -0.00533847 69 53 129
0.00548720 0.22824465 0.17263991 46 179 124
0.08927412 0.25960714 0.11448839 34 141 141
-0.04083972 0.23546301 0.11743006 33 143 141
0.00289023 0.00410109 0.00394909 67 61 132
-0.05840173 0.15699519 0.09996437 38 130 142
0.09118271 -0.05233066 -0.01754309 71 42 122
0.06436700 -0.03167525 0.00938928 66 65 134
-0.03503343 0.23550417 0.15258330 33 166 133
-0.19612062 0.00300126 -0.02048954 72 40 120
0.12998794 -0.02861803 -0.01528280 71 45 123
0.10168224 0.26109901 -0.02005706 72 40 120
0.06752645 0.21257330 0.11463208 34 141 141
-0.04266810 0.24648772 0.09528962 39 128 142
-0.03529298 0.16130517 0.08404128 42 120 142
-0.14086504 0.06848698 -0.01342177 71 46 124
0.04395659 0.14899439 -0.00416812 69 55 129
0.13591537 -0.12899540 -0.02406278 72 36 117
0.09927166 -0.17172252 -0.01213641 71 47 125
0.01229310 0.25956312 -0.01262285 71 47 125
-0.02153009 -0.29703110 -0.00887841 70 50 126
-0.01962445 0.00718893 -0.00378979 69 55 129
0.07904197 0.26717237 -0.03245400 72 29 111
0.03642106 0.25231016 -0.02673950 72 35 116
-0.12432297 0.03623155 -0.01132999 71 47 125
-0.03034514 -0.08750278 -0.00424218 69 53 129
-0.02748702 -0.01330247 0.00527506 67 62 133
0.15914352 -0.14807597 -0.01154255 71 47 125
-0.03769982 0.21813597 0.12882960 31 150 139
-0.05961974 -0.24504669 -0.00627502 70 52 128
0.17032149 -0.13410303 -0.02540314 72 36 117
-0.03790602 0.19610360 0.09211216 39 126 142
0.17052852 -0.16206437 -0.02038976 72 40 120
-0.08886176 -0.25666031 -0.01684397 71 44 122
-0.01286370 -0.07073329 -0.00894442 70 50 126
0.03187925 0.25159609 0.23353365 132 212 75
0.04360919 0.03580555 -0.02078857 72 40 120
0.13225634 0.00429977 -0.01419544 71 45 123
-0.01947555 0.04403456 -0.01355702 71 46 124
0.11580369 0.09218483 -0.02199537 72 38 119
0.16382439 0.09985379 -0.02064322 72 40 120
0.15873493 0.22078043 -0.02419957 72 36 117
0.02745692 0.26050362 0.17131244 45 178 125
0.01994826 0.03605326 -0.01471613 71 45 123
0.06608013 -0.18691199 -0.00694985 70 52 128
0.03612843 0.28416550 -0.02092016 72 40 120
0.10812038 -0.18764749 -0.01422044 71 45 123
0.10815560 0.17182752 -0.02136628 72 38 119
0.14817034 0.23587683 -0.02171070 72 38 119
0.08345766 0.07643836 -0.01719009 71 42 122
0.14072530 0.04344844 -0.01953930 72 41 121
0.09967476 -0.06811776 -0.01490092 71 45 123
0.12372825 0.13988212 -0.02008330 72 40 120
-0.05072349 -0.14450404 0.04077855 55 90 140
-0.08479401 -0.22122574 -0.01243499 71 47 125
-0.07615937 0.05212022 -0.01187273 71 47 125
-0.12534487 -0.22020029 -0.01349567 71 46 124
0.06788746 0.01165368 -0.01903387 72 41 121
0.04432502 0.01180535 -0.01547430 71 45 123
0.11922707 -0.13204166 -0.01803560 71 42 122
-0.10792298 0.06822694 -0.01286908 71 46 124
0.03495334 0.09141406 0.01831455 63 72 137
0.13260628 0.17989424 -0.02117481 72 40 120
0.05949559 0.25962263 -0.02644579 72 35 116
0.03131779 0.12687688 0.00339924 67 61 132
-0.14974032 -0.03360738 -0.01423338 71 45 123
0.05313800 0.14093013 0.03949927 56 89 140
-0.17885664 0.00677845 -0.01584518 71 44 122
0.13019127 0.26041141 -0.02641205 72 35 116
0.06311391 -0.12145753 -0.01247129 71 47 125
-0.19580798 -0.02779224 -0.00899830 70 50 126
0.06718387 0.16307713 0.03810504 56 88 140
0.11581231 0.06816277 -0.01865469 72 41 121
-0.00250248 -0.24323286 -0.01103219 70 48 126
-0.03548918 -0.11925206 0.04998535 52 97 141
0.16366372 0.25190356 -0.02331520 72 37 118
0.08425678 -0.21217236 -0.01276503 71 46 124
-0.03295373 0.19123301 0.06305961 48 106 142
0.03678691 -0.01101460 0.01269229 65 68 135
-0.01517892 0.23987767 0.14535937 31 161 136
-0.13087805 0.13690282 -0.01343882 71 46 124
-0.03378513 0.21194325 0.10026738 37 131 142
0.09179438 -0.02020202 -0.01525703 71 45 123
-0.15106601 -0.00698019 -0.01543573 71 45 123
0.10827386 0.10804739 -0.01759791 71 42 122
0.14765535 0.01220164 -0.01737581 71 42 122
0.17863984 0.06007790 -0.01847915 72 41 121
0.04489379 0.26900598 0.15071024 32 164 134
0.06856297 0.20035280 0.10214011 37 132 142
-0.17968214 -0.03584511 -0.01117212 70 48 126
0.01135309 -0.01921369 0.00285833 67 61 132
-0.02862273 0.17277859 0.06111559 48 105 142
0.03520716 0.07607786 0.03488278 57 85 140
0.16727394 -0.03711592 -0.01564660 71 44 122
0.01991903 -0.21951610 -0.00437563 69 53 129
-0.04411770 -0.06987091 -0.00694504 70 52 128
-0.05423844 -0.13354674 0.01432341 64 70 136
0.00474673 -0.29183736 -0.00582707 70 52 128
0.01698913 0.21827225 -0.01500748 71 45 123
0.04605908 -0.01843770 -0.00466598 69 53 129
0.01002049 -0.05202199 -0.00885204 70 50 126
0.16229536 -0.18090363 -0.01100596 70 48 126
0.07041430 0.04335064 -0.01575001 71 44 122
0.05207009 0.24368952 0.22016574 108 205 90
0.00560856 0.02556129 -0.01620486 71 44 122
-0.15585360 0.05169165 -0.01206145 71 47 125
0.05194610 0.11594686 -0.01745784 71 42 122
-0.02709666 0.20753074 0.22706635 119 209 83
0.12235884 0.22545055 -0.02440041 72 36 117
0.17913106 -0.01192404 -0.01892587 72 41 121
0.02722921 0.22146460 0.22777244 122 209 81
0.01983475 0.05987938 -0.01425650 71 45 123
-0.01152374 0.02815557 -0.01318858 71 46 124
0.11680804 -0.10003457 -0.01458833 71 45 123
0.01757884 -0.26772034 -0.01642174 71 44 122
0.08551700 -0.10578144 -0.01536982 71 45 123
0.08240476 -0.07610328 0.01231405 65 68 135
0.14701653 0.07410365 -0.01714869 71 42 122
-0.10858627 0.00463627 -0.01815322 71 42 122
0.09082835 0.01201814 -0.01735339 71 42 122
0.00242792 -0.17785679 0.00483687 67 62 133
-0.07649162 -0.27623242 -0.01068964 70 48 126
0.08073180 -0.25193384 -0.00995072 70 48 126
-0.08069631 -0.01448298 0.00891377 66 65 134
-0.11501993 -0.23761749 -0.01457181 71 45 123
-0.13139835 -0.00439101 -0.01494834 71 45 123
0.13344747 0.24381934 -0.02247040 72 38 119
-0.02917236 -0.27299514 -0.01110625 70 48 126
0.07998946 0.26529220 0.10114998 37 131 142
-0.06577034 -0.06000041 -0.00954701 70 50 126
0.03659008 0.25121698 0.15867002 36 170 131
0.08065311 0.24186413 0.12534073 32 147 140
-0.14295852 -0.26422101 -0.00726855 70 51 127
-0.02082047 0.14859183 0.05120983 51 98 141
0.03897651 0.09209205 -0.01691644 71 44 122
0.08315986 0.22789121 0.10822058 35 136 142
0.01192698 0.00355476 -0.01002084 70 48 126
0.12417921 -0.04393338 -0.01242668 71 47 125
-0.12413162 0.08288620 -0.01372222 71 46 124
0.00972070 0.06646752 0.01669125 63 71 136
-0.18074717 0.06956516 -0.01531401 71 45 123
-0.07009262 -0.15197669 0.03111714 58 83 139
-0.06702584 -0.12455671 0.00367608 67 61 132
-0.13056102 -0.23510742 -0.00850713 70 50 126
0.14098428 0.13872780 -0.02488937 72 36 117
-0.03611635 -0.04381654 -0.01159261 71 47 125
-0.03824381 0.18796496 0.10718270 36 135 142
-0.03530455 -0.14704140 0.03560853 57 86 140
0.09065084 0.20330188 -0.00766430 70 51 127
0.05099759 -0.21947719 -0.01059713 70 48 126
0.02823306 -0.18966311 0.00367048 67 61 132
0.06069951 -0.17190664 -0.00317721 69 55 129
0.05166543 0.23572128 0.14166504 31 159 136
0.00351234 0.11621401 0.03761327 56 88 140
0.01875335 -0.23606977 -0.01208428 71 47 125
0.14850651 0.10622919 -0.01811239 71 42 122
0.08423660 0.11612320 -0.01817687 71 42 122
0.06895585 0.27674416 -0.02205341 72 38 119
0.01577985 0.23132226 0.14664213 31 161 135
0.13431431 -0.16245463 -0.01719904 71 42 122
-0.08037829 0.24071045 0.17713554 50 182 122
-0.00433579 -0.25869790 -0.02062864 72 40 120
-0.06107038 -0.26790819 -0.02563301 72 35 116
0.08396835 0.19801085 0.09202360 39 126 142
-0.14002705 0.11570729 -0.01845096 72 41 121
-0.15560265 0.08401994 -0.01477967 71 45 123
-0.13987428 0.05191356 -0.01491536 71 45 123
-0.02650850 -0.12500089 0.01101873 65 66 135
0.16386324 0.12385661 -0.02033126 72 40 120
-0.19142780 -0.16030112 -0.01821432 71 42 122
0.04449423 -0.17937605 0.01320427 64 69 136
0.06794800 -0.00411836 -0.01527321 71 45 123
0.07440965 0.17872977 -0.02316287 72 37 118
-0.04337728 -0.15692644 0.01360274 64 69 136
0.06798720 0.10804610 -0.01885534 72 41 121
-0.14785156 0.02026474 -0.01189402 71 47 125
0.10012817 0.18670058 -0.02440992 72 36 117
-0.03271408 0.14081764 0.06908193 46 110 142
0.07026752 -0.13272934 0.00223842 68 59 132
-0.19498175 0.06037437 -0.01526296 71 45 123
0.11581258 0.02776538 -0.01836006 72 41 121
0.05653268 0.19132948 0.09642267 38 129 142
-0.00393991 -0.26035732 -0.00413728 69 55 129
0.03465024 0.09975116 0.00314658 67 61 132
0.00337154 0.24443084 0.24126315 144 215 67
-0.12669304 0.10243533 -0.02810010 72 33 115
0.07051887 0.19425982 -0.02491336 72 36 117
0.01966631 -0.03874912 -0.00305614 69 55 129
0.02793362 -0.24986181 -0.00720080 70 51 127
0.05108674 0.05172512 -0.01957880 72 41 121
0.05993088 0.07612026 -0.01743765 71 42 122
-0.06767968 0.20321167 0.14095308 31 158 137
0.04951517 0.16101483 -0.01265601 71 47 125
0.09998546 -0.15596782 -0.00998320 70 48 126
-0.00258557 0.29698443 -0.01932103 72 41 121
0.04753056 0.21131003 0.12096132 33 145 140
0.11084609 -0.22676712 -0.02561649 72 35 116
0.00402428 0.20910579 0.22338925 115 208 86
-0.05639005 -0.02456422 0.00108223 68 58 131
-0.04397398 0.02766065 -0.01235977 71 47 125
-0.18138872 -0.05080652 -0.01961632 72 41 121
0.07362220 -0.04371656 0.00633968 66 63 133
-0.07482298 0.02042942 -0.00884929 70 50 126
0.13272072 0.07771789 -0.02172242 72 38 119
-0.01252049 -0.00266888 0.01182620 65 68 135
0.02865503 0.24559028 0.14353724 31 160 136
-0.19286758 -0.06186806 -0.02471441 72 36 117
-0.06595898 -0.18511243 0.01253599 65 68 135
0.16597398 -0.11101097 -0.01425385 71 45 123
-0.01930751 -0.11840203 0.05550364 50 101 142
-0.15454766 0.10049421 -0.01759387 71 42 122
-0.01211973 -0.10810176 -0.00180588 69 56 130
0.00192189 0.23669243 0.13783914 30 156 137
0.08382117 -0.18707061 -0.00796149 70 51 127
-0.05229826 0.17080937 0.10179555 37 132 142
0.03565824 -0.19706067 -0.01302052 71 46 124
0.07908190 -0.22632737 -0.01675154 71 44 122
0.00046930 -0.14240611 -0.01079901 70 48 126
0.07555947 -0.20034891 -0.00765842 70 51 127
0.08242916 0.23454270 -0.01479954 71 45 123
0.15621439 0.04472964 -0.01932334 72 41 121
-0.01723264 -0.16432688 0.00745936 66 64 134
-0.19517247 0.11509277 -0.01318258 71 46 124
0.04196076 0.24868011 0.20739478 88 199 101
0.10038909 -0.00436241 -0.01466548 71 45 123
0.08743816 0.21505177 0.08697614 41 122 142
0.09933897 0.27553743 -0.02310291 72 37 118
0.04574068 -0.03420516 0.01324400 64 69 136
0.06862760 0.24810623 -0.02386129 72 37 118
0.05975448 -0.17683910 0.01211350 65 68 135
0.10937577 0.07823636 -0.02755019 72 33 115
-0.05866002 -0.27516180 -0.01208731 71 47 125
0.06032032 0.22770445 0.13230412 31 152 139
0.12129089 0.20833017 -0.02359097 72 37 118
0.17881404 0.00396609 -0.01899461 72 41 121
-0.09132634 -0.30195755 0.00042340 68 58 131
0.07560235 0.02765662 -0.01691917 71 44 122
0.05156605 0.13226505 -0.01841615 72 41 121
0.13300911 -0.07347547 -0.01584251 71 44 122
-0.06008316 0.04373191 -0.01178143 71 47 125
0.02911437 0.13741289 0.02961195 59 81 139
-0.03706249 0.19593304 0.07656858 44 115 142
0.17879106 -0.09018095 -0.02145585 72 38 119
0.07658724 0.19550066 0.07556700 44 114 142
0.04574589 0.20605020 -0.02527196 72 36 117
0.00763432 -0.21156688 -0.00075780 68 57 131
-0.04342327 0.05959230 -0.00945363 70 50 126
-0.05142757 -0.03540238 -0.00734447 70 51 127
-0.00417170 0.22002324 0.23673069 137 213 72
0.10038810 0.04398076 -0.01926398 72 41 121
0.00911699 0.09260441 0.03480345 57 85 140
0.09986188 0.20396028 -0.01891648 72 41 121
0.08615330 0.25217465 0.09210230 39 126 142
0.12732689 -0.09327248 -0.02548526 72 35 116
-0.06226312 -0.11326191 -0.00408331 69 55 129
0.01306799 0.24280767 0.19347201 70 192 111
0.14116044 -0.18722147 -0.01565378 71 44 122
0.06827045 -0.03597687 -0.01275645 71 46 124
-0.07602174 0.23574679 0.16435708 39 173 129
-0.05256377 0.23479241 0.14819700 31 162 135
0.04631901 0.22931805 -0.02741016 72 33 115
-0.05497050 -0.22997546 -0.00620322 70 52 128
0.07340217 0.15372092 -0.01553731 71 44 122
-0.00387466 -0.05266540 -0.00563169 69 53 129
0.09462766 0.15339570 -0.01578075 71 44 122
0.12966982 -0.20484254 -0.02033852 72 40 120
0.05009979 -0.20545754 -0.00884983 70 50 126
0.04794067 0.16721125 0.08479637 41 121 142
-0.07127029 -0.06754614 0.00105611 68 58 131
-0.16263005 0.12482065 -0.00826252 70 51 127
-0.05065078 -0.16705233 0.00698306 66 63 133
-0.02611175 -0.18555635 0.01050605 65 66 135
-0.04316550 -0.13523217 0.04822920 52 96 141
-0.11826260 -0.22990967 -0.02589072 72 35 116
0.03484870 0.21963386 0.21608469 103 204 92
-0.06960168 -0.31407118 -0.00843841 70 51 127
-0.00982329 -0.03772271 -0.00737539 70 51 127
-0.01860062 -0.12265754 -0.00609659 70 52 128
-0.07428969 -0.08405401 -0.00446123 69 53 129
0.03798565 0.07066074 -0.00577216 70 52 128
0.02269278 -0.20355016 -0.00852629 70 50 126
0.03449219 0.23654051 0.23533769 134 213 73
0.15659302 0.08423519 -0.01742814 71 42 122
0.07654696 -0.11613162 -0.01789043 71 42 122
-0.04464634 -0.10516370 0.00168903 68 59 132
-0.03814711 0.13430536 0.08075804 42 118 142
-0.06000462 -0.08411802 -0.00479807 69 53 129
0.09983055 0.24441266 -0.02123397 72 38 119
-0.04005182 -0.14059469 0.01103878 65 66 135
-0.05067162 0.23338461 0.09015898 40 124 142
-0.02836232 0.12551929 0.06024562 49 104 142
-0.04415828 -0.01420183 0.00582480 66 63 133
0.16522306 0.01866263 -0.01550051 71 45 123
-0.03430368 -0.23064880 -0.00871760 70 50 126
0.10671364 0.23519121 0.08948276 40 124 142
0.04939762 -0.26837033 -0.01363285 71 46 124
-0.09917793 0.07815957 -0.01649168 71 44 122
0.00637138 -0.00337233 0.01491537 64 70 136
0.14664821 -0.13649787 -0.02007284 72 40 120
-0.05633479 0.01512926 -0.00844479 70 51 127
0.07768760 -0.14563616 -0.01894072 72 41 121
0.06068803 -0.24494596 -0.00626134 70 52 128
0.10821315 -0.12403148 -0.01287508 71 46 124
0.02524883 0.22474706 -0.02435048 72 36 117
0.10814974 0.22809479 -0.02787219 72 33 115
-0.04353343 0.15594587 0.09345011 39 127 142
-0.03822024 0.21999995 0.11538234 34 141 141
0.06741442 -0.07806623 -0.00764880 70 51 127
0.16020077 -0.20873731 -0.03276022 72 28 110
0.10638259 -0.20100214 -0.01574352 71 44 122
0.03755986 0.13150103 0.02087196 62 74 137
-0.01682514 -0.14733788 0.00717236 66 64 134
-0.09225400 -0.23443031 -0.00956855 70 50 126
-0.11656430 -0.26186386 -0.00703706 70 52 128
-0.07407069 -0.00300510 0.00644612 66 63 133
0.17720583 0.09962181 -0.02209844 72 38 119
-0.07176039 -0.23631829 -0.00630932 70 52 128
-0.09047699 -0.27355736 -0.00331520 69 55 129
0.05887700 0.16396593 0.05988207 49 104 142
-0.07069876 0.17520672 0.12300581 32 146 140
-0.17647895 -0.07362238 -0.03435694 72 27 109
-0.02737503 0.24213564 0.12185425 32 146 140
-0.07646027 -0.29074967 -0.00850601 70 50 126
0.06662397 0.25456810 0.14582410 31 161 135
0.05410938 -0.02142164 -0.01647730 71 44 122
-0.05223390 -0.24352182 -0.01893302 72 41 121
-0.14419246 -0.28442878 -0.00458068 69 53 129
0.01930892 0.24432965 -0.02135374 72 38 119
0.12224180 0.01283476 -0.01665015 71 44 122
0.01943954 0.30310038 -0.02433061 72 36 117
-0.01943630 0.22318819 0.24072886 144 215 67
0.17407393 0.22474040 -0.02297557 72 37 118
0.14919938 -0.02275424 -0.01566095 71 44 122
-0.06161434 0.24508946 0.16179179 37 172 130
0.14343128 0.05635249 -0.01564193 71 44 122
-0.03947465 0.23136973 0.13939205 30 157 137
-0.03644269 0.14804365 0.08417425 42 120 142
0.06148972 -0.14392313 0.01497209 64 70 136
-0.05601460 0.20699693 0.21843305 105 205 91
-0.05858951 0.00577023 0.00435469 67 62 133
-0.13064149 -0.20695464 -0.00944347 70 50 126
-0.01277706 -0.22045948 -0.00639183 70 52 128
0.00864577 -0.26544467 -0.00691616 70 52 128
0.11009043 0.25451005 0.09637198 38 129 142
0.11615843 0.26000965 -0.02646167 72 35 116
-0.12134945 0.12811902 -0.01605916 71 44 122
-0.15948913 0.02827173 -0.00786559 70 51 127
-0.06117717 0.19113730 0.12874202 31 150 139
0.07799161 -0.10875841 0.01214791 65 68 135
0.16309063 -0.08620682 -0.02336218 72 37 118
0.15445434 -0.01093543 -0.01798064 71 42 122
-0.17175736 -0.00421676 -0.01492618 71 45 123
0.09162478 -0.13162522 -0.01722667 71 42 122
0.07604181 -0.08426119 0.00426613 67 62 133
0.03005790 0.27331382 0.17207915 45 178 125
0.03953862 0.27129379 -0.02385014 72 37 118
0.11577205 -0.02562080 -0.01649083 71 44 122
0.15996718 -0.19375733 -0.01086801 70 48 126
-0.16545677 0.04304578 -0.00760809 70 51 127
0.03190273 0.26319578 -0.03243911 72 29 111
0.04521821 0.29212016 -0.02583390 72 35 116
0.07588924 -0.05231808 -0.01337664 71 46 124
-0.03681219 0.22527868 0.08791761 41 123 142
0.13203871 -0.17798668 -0.01512117 71 45 123
0.17770624 -0.10353211 -0.02352376 72 37 118
0.07947052 0.05418425 -0.01626000 71 44 122
0.06828593 0.14001469 -0.01846324 72 41 121
0.06481390 0.17496154 0.08049835 42 118 142
0.04930317 0.22871616 0.21489200 101 203 94
0.03424439 -0.17144831 0.01258337 65 68 135
0.02291870 -0.01752376 0.00847787 66 65 134
0.13895492 -0.11300335 -0.02334719 72 37 118
0.11799842 0.05521938 -0.01570970 71 44 122
0.09982985 0.02807367 -0.01792213 71 42 122
0.08092400 0.25469422 0.12476214 32 147 140
0.07026252 0.18652494 0.06890192 46 110 142
0.06300641 0.18282427 -0.01896075 72 41 121
-0.05994176 0.21188271 0.14632517 31 161 135
0.03117055 0.24547535 0.24949479 160 218 57
-0.10043059 -0.26269990 -0.01784568 71 42 122
-0.14314824 0.00298990 -0.01636267 71 44 122
0.05459858 -0.02558385 0.00390970 67 61 132
-0.02828983 0.01254999 -0.01140237 71 47 125
0.06020316 -0.04190610 0.01664566 63 71 136
0.05471256 -0.15875587 -0.00527680 69 53 129
0.09152915 0.22820921 0.08478119 41 121 142
-0.06897970 -0.16361137 0.02451688 61 78 138
0.02478951 0.25618836 -0.02368855 72 37 118
-0.04305589 -0.08318964 -0.00366895 69 55 129
0.01257485 0.23601416 0.16569184 40 174 128
-0.09443378 -0.24680783 -0.00870058 70 50 126
-0.15415144 -0.26038876 -0.01159590 71 47 125
0.00087219 -0.16100180 -0.00360517 69 55 129
0.02523743 0.13333963 0.04189563 55 91 141
0.03031993 0.10531218 0.02233108 62 76 138
-0.16344804 -0.23883362 -0.00693482 70 52 128
-0.03851014 -0.18553634 0.00857653 66 65 134
-0.04191032 0.20359595 0.06648497 46 109 142
0.01797916 0.26044309 0.17952016 53 183 121
0.01579350 0.09696463 0.02353537 61 77 138
0.06887386 -0.13888490 -0.00919119 70 50 126
-0.06632333 -0.01897232 0.00655634 66 63 133
0.00533479 -0.11325894 -0.00590965 70 52 128
0.13885726 -0.04439366 -0.01777788 71 42 122
0.02890080 -0.22707552 -0.00865094 70 50 126
0.07846566 -0.06747121 0.00307244 67 61 132
0.02112079 0.26747072 0.19366834 70 192 111
0.03532706 0.07651340 0.01258278 65 68 135
0.08174966 0.21496838 0.11241358 34 139 141
0.04262840 0.13996923 0.00417982 67 61 132
0.02845639 -0.00514971 0.00370166 67 61 132
0.09828845 -0.23342295 -0.02103160 72 40 120
-0.05542025 -0.07135526 -0.01156458 71 47 125
-0.01151675 0.23971030 0.13076258 31 151 139
-0.04598946 0.19828868 0.12207039 32 146 140
0.06403497 -0.03872040 -0.00067210 68 57 131
0.16891465 -0.06416713 -0.01730195 71 42 122
-0.01307905 -0.12513337 -0.01703894 71 42 122
0.05308957 0.15430009 0.06956138 46 111 142
0.04623666 0.19363642 0.10264113 37 132 142
0.05639979 0.00882745 -0.01595061 71 44 122
0.02561316 0.07061202 -0.00435610 69 53 129
0.04943325 0.02563223 -0.02429103 72 36 117
-0.02252677 -0.28300753 -0.00914339 70 50 126
0.05238197 0.14163205 0.05282955 51 99 141
0.15581179 -0.10683896 -0.02001381 72 40 120
0.15672906 -0.16501667 -0.01301292 71 46 124
-0.05917899 -0.10073042 -0.00124759 68 57 131
0.07385987 0.26116538 -0.02330095 72 37 118
-0.13987505 -0.24371015 -0.00483509 69 53 129
0.09172899 -0.08388025 -0.01390428 71 46 124
0.05537814 0.06502806 -0.01592848 71 44 122
0.09951119 0.09987728 -0.01908603 72 41 121
0.14826953 -0.06742121 -0.01686447 71 44 122
0.02038770 0.22789924 0.23531832 134 213 73
0.10491902 -0.08135866 -0.01537845 71 45 123
-0.11573950 0.01220363 -0.01211473 71 47 125
0.03109030 0.26191697 0.15899234 36 170 131
0.14853923 0.21204372 -0.02106657 72 40 120
0.09614756 0.21453400 0.07811358 43 116 142
0.16804300 -0.12274384 -0.01540093 71 45 123
-0.18210018 0.11278348 -0.01716416 71 42 122
0.07974795 0.24143845 0.09524000 39 128 142
-0.05578378 -0.26358488 -0.01206587 71 47 125
0.06824818 -0.05138214 0.01372925 64 69 136
0.10784269 -0.05197321 -0.01343302 71 46 124
0.12442610 0.03596945 -0.01785194 71 42 122
0.02027357 0.28362393 -0.02245618 72 38 119
0.03594944 -0.01220595 -0.00480509 69 53 129
0.11335334 0.00186942 -0.01547359 71 45 123
0.02784361 -0.26067883 -0.01204102 71 47 125
0.01190379 0.27561426 -0.01982950 72 40 120
-0.00966078 0.27917656 -0.01321907 71 46 124
-0.01977482 0.05965526 -0.01233702 71 47 125
0.16420926 0.20423585 -0.02252057 72 38 119
0.11595587 0.15612717 -0.02044546 72 40 120
0.02362567 0.24819735 0.16766013 41 175 127
0.12341707 -0.00422569 -0.01779967 71 42 122
-0.13166867 -0.26701978 -0.00906892 70 50 126
-0.03491784 -0.29905775 -0.00617326 70 52 128
-0.03353273 -0.26243952 -0.01385648 71 46 124
0.16393349 0.06817950 -0.01857623 72 41 121
0.06287920 0.17105789 0.04664897 53 95 141
0.16396502 0.16400988 -0.02183938 72 38 119
-0.02869796 -0.01722164 -0.00571143 70 52 128
0.00752234 0.06436554 -0.00862625 70 50 126
0.12390789 0.10031502 -0.01961434 72 41 121
0.05886568 0.18263276 0.08892705 41 123 142
0.16410747 0.17992559 -0.02140703 72 38 119
0.13224894 0.13186733 -0.02003169 72 40 120
0.12816130 -0.13767673 -0.02305305 72 37 118
0.09961949 0.16411471 -0.01952968 72 41 121
0.17768848 0.12396101 -0.02035303 72 40 120
-0.00374987 -0.02772324 -0.00706065 70 51 127
0.06880715 -0.10001979 -0.00391367 69 55 129
0.08313893 -0.07729882 -0.00680018 70 52 128
-0.07141533 -0.11081173 0.00263662 68 59 132
0.04391521 0.26141515 -0.02809910 72 33 115
0.07615986 0.23545188 0.13390709 31 153 138
0.13931924 0.11610398 -0.02180148 72 38 119
-0.13219273 0.02786654 -0.00979347 70 50 126
0.01190518 0.06800043 0.04101417 55 91 141
0.15666533 -0.07598303 -0.01958484 72 41 121
0.09200604 -0.24856070 -0.01175130 71 47 125
0.12942848 0.21634585 -0.02532246 72 36 117
0.06832919 0.08403265 -0.01754634 71 42 122
0.14769186 -0.05179778 -0.01783670 71 42 122
0.00699090 0.07845975 0.03101167 59 82 139
0.11421215 -0.14809127 -0.01433475 71 45 123
0.04082119 0.08274408 -0.00851107 70 50 126
0.01143275 0.23624028 0.17917709 52 182 121
-0.18020289 -0.02052897 -0.00920300 70 50 126
0.06310564 -0.19791886 -0.00843572 70 51 127
0.06093201 0.21925341 0.12454429 32 147 140
0.12433589 0.17208222 -0.01967660 72 41 121
-0.01976014 0.02017960 -0.01311161 71 46 124
0.03811746 0.15870817 -0.00244929 69 56 130
0.08849061 0.27200946 -0.02416852 72 36 117
-0.03614926 0.05158815 -0.01337774 71 46 124
-0.00431530 -0.10007048 -0.00419759 69 55 129
-0.11598379 0.04342327 -0.01446669 71 45 123
0.06483745 0.17418434 0.06907845 46 110 142
0.00382948 0.22815570 0.23762913 139 214 70
0.07955521 0.25668034 0.10921025 35 137 142
-0.02016454 -0.09999186 -0.00236387 69 56 130
0.10793568 0.13197541 -0.01766164 71 42 122
-0.12958588 0.04710148 -0.01617590 71 44 122
-0.12375645 0.02004330 -0.00994989 70 48 126
0.10752446 0.06035111 -0.01944838 72 41 121
-0.03327051 0.19576061 0.05259422 51 99 141
0.06660643 0.28978372 -0.02348505 72 37 118
0.16412340 0.03602922 -0.01794412 71 42 122
0.05992987 0.25872275 0.15404725 34 167 133
0.07405490 -0.10241473 -0.01628354 71 44 122
0.11598466 0.12397280 -0.01851094 72 41 121
0.06834039 -0.16399783 -0.00610481 70 52 128
-0.01135077 -0.02014285 -0.00331545 69 55 129
-0.03393137 -0.21842626 -0.00342344 69 55 129
0.00282037 -0.25020835 -0.01822709 71 42 122
0.14827868 0.18781881 -0.02003495 72 40 120
0.06072078 -0.15639694 0.01905175 62 73 137
0.07826312 -0.01871108 -0.01451450 71 45 123
-0.18860632 0.09096697 -0.01432856 71 45 123
0.10874403 0.25150555 -0.02571437 72 35 116
0.10013497 -0.04376752 -0.01440831 71 45 123
0.03649134 0.24470989 -0.01832416 71 42 122
0.15612036 0.11568050 -0.02089286 72 40 120
0.15575667 -0.04379512 -0.01722752 71 42 122
0.01168636 0.05193945 -0.01523861 71 45 123
0.03382152 0.11591396 0.00301283 67 61 132
0.10008096 -0.02773210 -0.01420987 71 45 123
-0.12328046 0.00401297 -0.01369356 71 46 124
-0.03933432 -0.14736976 0.01996641 62 74 137
0.03694353 0.12366595 0.01255267 65 68 135
-0.02990294 -0.13830991 0.04253179 54 92 141
-0.00591689 -0.18400906 0.00058991 68 58 131
-0.18802953 0.04383472 -0.01059854 70 48 126
0.05228180 0.25100416 -0.02352018 72 37 118
0.08362065 -0.06117178 -0.01437158 71 45 123
0.13976935 0.16403669 -0.02168306 72 38 119
0.17384335 0.17242633 -0.02534432 72 36 117
-0.00402290 0.05223027 -0.01403657 71 46 124
-0.01894783 0.21283859 0.23654278 137 213 72
-0.00603044 0.23977602 0.15177186 33 165 133
-0.02099206 -0.11451136 0.00116544 68 58 131
-0.01870126 -0.26854557 -0.00684540 70 52 128
0.14595333 0.03498656 -0.02460442 72 36 117
-0.15063311 0.11582463 -0.01337692 71 46 124
-0.03572100 0.16419311 0.06792699 46 110 142
0.02020129 0.01187957 -0.01188993 71 47 125
0.09180743 0.09203297 -0.01741724 71 42 122
0.09240168 0.13200392 -0.01802018 71 42 122
0.09312093 0.22000685 -0.02052067 72 40 120
0.14442548 -0.15828371 -0.01910629 72 41 121
-0.01338817 0.15625116 0.04440656 54 93 141
0.05206661 0.08395185 -0.01752761 71 42 122
-0.03645164 0.03578251 -0.01310387 71 46 124
0.15623611 0.13187191 -0.02097812 72 40 120
-0.12431148 -0.24363649 -0.01171821 71 47 125
0.10979398 -0.10851917 -0.01554257 71 44 122
0.07477736 0.22039485 -0.01482320 71 45 123
-0.01249823 0.00590722 0.00486500 67 62 133
0.13075575 -0.05243368 -0.01496244 71 45 123
-0.02869716 -0.08234365 -0.01716704 71 42 122
0.07895030 0.22015196 0.09181970 39 126 142
-0.14768448 -0.01961582 -0.01234059 71 47 125
0.03760914 0.06692489 -0.01729847 71 42 122
0.05230445 0.09980912 -0.01907489 72 41 121
-0.03581613 -0.00385835 0.01367579 64 69 136
0.09236624 0.10792504 -0.01686570 71 44 122
-0.17208615 -0.02807028 -0.00956718 70 50 126
-0.06348249 0.18392006 0.12079610 33 145 140
-0.19665796 -0.00646891 -0.01455400 71 45 123
-0.14012867 0.08235580 -0.01496847 71 45 123
0.14852363 0.15578498 -0.02091533 72 40 120
0.00643584 -0.23959498 -0.01623185 71 44 122
0.02712696 0.04432233 -0.01493820 71 45 123
0.16367039 0.14000629 -0.01998968 72 40 120
0.07580744 0.13199660 -0.02040375 72 40 120
-0.17191368 0.07568333 -0.01324458 71 46 124
0.05954933 -0.01178003 -0.01508543 71 45 123
0.07335505 -0.24431925 -0.00727942 70 51 127
0.08418355 -0.12386096 -0.01917606 72 41 121
0.02876328 0.29221913 -0.02137189 72 38 119
-0.06778358 0.03601352 -0.01119287 70 48 126
0.13181034 0.10824347 -0.02082254 72 40 120
-0.14764446 0.05956959 -0.01506877 71 45 123
0.01250541 -0.17634037 0.00872615 66 65 134
0.03563575 0.00425601 -0.01404582 71 46 124
0.10009836 0.14015260 -0.01800820 71 42 122
0.01283242 0.10785145 0.03728919 56 88 140
0.02531131 0.21456100 0.21899052 108 205 90
0.10861143 0.19585256 -0.02045637 72 40 120
-0.00444190 0.00578046 -0.00488380 69 53 129
-0.09999899 0.02000884 -0.01271288 71 46 124
-0.08237151 -0.26717010 -0.00942475 70 50 126
0.07616799 0.00395805 -0.01712910 71 42 122
-0.00332368 0.03589135 -0.01357462 71 46 124
0.02740567 0.23482227 -0.02089393 72 40 120
-0.04472341 0.21266808 0.13913985 30 157 137
0.04398649 0.25891295 0.15666632 34 168 132
0.12465270 0.08483956 -0.02026295 72 40 120
-0.13130549 0.12384682 -0.01677728 71 44 122
-0.00830183 0.24604437 0.24483582 152 216 62
0.07168305 -0.14259073 0.01844796 62 73 137
0.05207225 -0.23623145 -0.00894304 70 50 126
-0.10043415 0.03577683 -0.01227033 71 47 125
-0.01132150 -0.28355554 -0.00523090 69 53 129
0.00313605 -0.25226861 -0.00549021 69 53 129
-0.03862922 0.18795717 0.08372279 42 120 142
-0.01933694 0.23655669 0.15478215 34 167 133
0.16220273 -0.14332071 -0.02075926 72 40 120
0.02307903 0.06764238 0.00927708 66 65 134
0.04927273 0.14240466 -0.01544847 71 45 123
-0.03636671 0.01934032 -0.01372090 71 46 124
-0.01775713 -0.17207083 0.01730203 63 72 137
0.01929848 0.25239664 0.18841971 63 188 115
0.06833421 0.19530237 0.09223684 39 126 142
0.15851679 0.23495865 -0.02455513 72 36 117
0.14776100 -0.09246685 -0.02305006 72 37 118
0.08117612 0.04320040 -0.01589481 71 44 122
0.02912791 0.24391524 0.20134093 80 196 106
0.16154326 -0.15620345 -0.02116470 72 40 120
0.03629686 0.02794979 -0.02024262 72 40 120
0.01995111 0.07541209 0.03474100 57 85 140
-0.03599543 0.18010736 0.09208356 39 126 142
0.12287901 0.25206906 -0.02910131 72 32 113
0.07564032 0.06789764 -0.01830644 71 42 122
0.07623690 0.09202476 -0.02008930 72 40 120
0.09941410 0.06798241 -0.01871162 72 41 121
-0.02878552 -0.03602003 -0.01207017 71 47 125
-0.05173851 0.03610004 -0.01129173 70 48 126
0.07639409 0.20382835 0.10854378 35 136 142
-0.02366819 -0.13502565 0.00860643 66 65 134
0.00342911 0.23112996 0.18408597 58 186 118
-0.03591874 0.22834504 0.10912171 35 137 142
-0.09197482 0.02816880 -0.01130920 71 47 125
-0.09229490 0.04443295 -0.01336832 71 46 124
-0.02269380 0.15751597 0.05668615 49 102 142
-0.03996164 0.23725502 0.12786859 31 149 139
0.17785230 -0.02175345 -0.01509422 71 45 123
0.06017082 0.04411967 -0.01844979 72 41 121
0.04211680 0.22645499 0.20741935 88 199 101
-0.13183695 0.07568450 -0.01258503 71 47 125
-0.18030538 0.08394787 -0.01267306 71 47 125
-0.05211134 0.18012865 0.10929403 35 137 142
0.11675668 0.23852806 0.08974892 40 124 142
-0.16254300 0.01747053 -0.01271381 71 46 124
0.09023605 0.25738215 0.08384489 42 120 142
0.16473565 -0.18908846 -0.01907691 72 41 121
0.16391753 0.05191901 -0.01949971 72 41 121
0.08747377 -0.17415686 -0.00786740 70 51 127
0.11210018 -0.08901645 -0.01621030 71 44 122
-0.03434775 -0.02748851 -0.00900276 70 50 126
0.08081988 0.23468745 0.11588163 33 142 141
0.04131063 0.17122024 -0.00914573 70 50 126
0.05754672 0.28446940 -0.02505912 72 36 117
-0.06609184 -0.28197569 -0.01499215 71 45 123
0.07521635 -0.10015454 0.00438693 67 62 133
-0.03536344 0.00735877 0.00724053 66 64 134
-0.18823075 -0.04332331 -0.01401198 71 46 124
-0.05257066 -0.00911865 0.00941837 66 65 134
-0.01835893 -0.11933013 0.04512401 54 93 141
0.11380591 -0.17897888 -0.01279764 71 46 124
-0.17929180 -0.25809604 -0.01492445 71 45 123
0.01941979 -0.02585667 0.00287107 67 61 132
0.04268825 -0.01401773 0.00416560 67 61 132
-0.05175522 -0.16360603 0.01970633 62 73 137
0.12353638 -0.06765036 -0.01424087 71 45 123
0.09062272 -0.16247521 -0.00762708 70 51 127
-0.02848008 -0.24051811 -0.00984353 70 50 126
0.00391585 0.28404668 -0.01884070 72 41 121
0.17239684 -0.00405012 -0.01744189 71 42 122
0.08429595 0.02008118 -0.01774978 71 42 122
0.00325530 -0.29062942 -0.01810489 71 42 122
-0.11631512 0.07606303 -0.01357645 71 46 124
0.08663320 0.24600242 0.08377883 42 120 142
0.04155656 0.12292498 -0.01540485 71 45 123
0.06118132 -0.22080071 -0.00915459 70 50 126
0.06974055 -0.05852764 -0.00534590 69 53 129
-0.07507157 0.22909075 0.15483454 34 167 133
-0.03366034 0.16527590 0.05547413 50 101 142
0.09271847 -0.03613848 -0.01473688 71 45 123
