ply
format ascii 1.0
element vertex 1024
property float x
property float y
property float z
property uchar red
property uchar green
property uchar blue
end_header
-0.19556366 -0.39602119 -0.00475206 69 53 129
-0.18779366 0.38571250 -0.00418608 69 55 129
0.19750398 -0.01464807 0.00005363 68 58 131
-0.19615451 -0.00398983 -0.00453437 69 53 129
0.06757095 0.25315562 0.15351352 33 166 133
0.10799878 -0.31603947 -0.00146187 69 56 130
0.00398844 0.10007536 -0.00229420 69 56 130
-0.08420390 -0.19613245 -0.00343221 69 55 129
0.19500604 0.19559345 -0.00033217 68 57 131
-0.02756405 0.29183021 -0.00251449 69 56 130
-0.19609347 0.17118253 -0.00439089 69 53 129
0.03614762 -0.07593120 0.00133837 68 58 131
0.19815451 -0.17625883 0.00001773 68 58 131
-0.03571761 -0.38828391 -0.00305939 69 55 129
-0.07446983 0.19106096 0.11506100 34 141 141
-0.19666810 -0.26007217 -0.00469547 69 53 129
0.04430529 -0.20386393 -0.00208241 69 56 130
-0.19656630 -0.13205932 -0.00467897 69 53 129
-0.06800520 -0.00423093 -0.00310272 69 55 129
0.06753337 0.21191980 -0.00156191 69 56 130
0.13201216 0.09195218 -0.00093893 68 57 131
-0.10860042 0.10009340 -0.00354107 69 55 129
0.03098342 0.16577367 0.08958881 40 124 142
-0.02739725 -0.28405464 -0.00289675 69 55 129
-0.19732568 0.27454257 -0.00431316 69 53 129
-0.04282850 0.18860132 -0.00281445 69 56 130
0.13313659 -0.09937709 0.00974425 66 65 134
-0.11612126 -0.33202726 -0.00391356 69 55 129
0.06047349 0.02020164 -0.00177421 69 56 130
-0.09958476 -0.10007294 -0.00359965 69 55 129
0.19504286 -0.27366185 -0.00033453 68 57 131
-0.11454710 0.32587665 -0.00351288 69 55 129
-0.01101291 0.28025490 0.19444951 70 192 111
-0.19561096 0.08425007 -0.00446423 69 53 129
-0.01923089 -0.14009677 0.00964362 66 65 134
-0.04069119 0.13401458 0.06075218 48 105 142
0.12418958 -0.22801790 -0.00121514 68 57 131
0.03590256 -0.35558662 -0.00225341 69 56 130
0.05100958 0.28884894 -0.00167436 69 56 130
0.13946833 0.25088596 -0.00062369 68 57 131
-0.07255739 0.25694054 0.15419497 34 167 133
-0.01190565 0.02966503 0.03646687 57 86 140
-0.12583864 0.20093901 -0.00382453 69 55 129
0.12386233 -0.02018405 -0.00107252 68 57 131
0.07616562 0.13977385 -0.00150949 69 56 130
-0.15680599 -0.19584276 -0.00420024 69 55 129
-0.12419552 -0.26012522 -0.00392683 69 55 129
0.04401784 -0.27588683 -0.00213468 69 56 130
-0.16374956 -0.06818391 -0.00425435 69 53 129
-0.13184653 0.02798153 -0.00380811 69 55 129
0.19589783 0.12375382 0.00010046 68 58 131
0.07618067 -0.14011985 0.00168216 68 59 132
-0.00497833 0.24936509 0.13333729 31 153 138
0.19256225 0.05549793 0.00009720 68 58 131
0.07100703 0.21904907 0.09330840 39 127 142
0.19792925 -0.09527242 0.00003693 68 58 131
-0.10042486 -0.39606431 -0.00376283 69 55 129
0.13187781 0.17993675 -0.00090462 68 57 131
0.00410478 -0.01972690 -0.00239732 69 56 130
-0.01994067 -0.21202913 -0.00277623 69 56 130
-0.07293273 0.24582630 -0.00321450 69 55 129
-0.18024370 -0.32440990 -0.00455657 69 53 129
0.00415267 0.23605794 -0.00223556 69 56 130
-0.04441569 -0.06749411 -0.00287846 69 55 129
0.01983129 0.17185722 -0.00209237 69 56 130
0.13208658 -0.16413307 -0.00109311 68 57 131
-0.05192811 0.12405974 -0.00290345 69 55 129
0.05992071 0.08402313 -0.00174066 69 56 130
-0.11539462 -0.03623643 -0.00369141 69 55 129
0.11625911 0.03620671 -0.00109763 68 57 131
-0.13965632 -0.13987206 -0.00401363 69 55 129
-0.05983678 -0.33160800 -0.00323678 69 55 129
-0.14839678 0.13977580 -0.00390820 69 55 129
0.03718428 0.21369575 0.13384990 31 153 138
-0.17243353 0.22779126 -0.00410290 69 55 129
-0.03871936 0.18783019 0.07662887 44 115 142
0.09196956 -0.06817052 0.00196681 68 59 132
-0.04396709 0.23451892 0.10222818 37 132 142
-0.14880711 -0.37218422 -0.00423967 69 53 129
-0.06047653 -0.24413453 -0.00325488 69 55 129
-0.09190927 0.15617491 -0.00329009 69 55 129
-0.06013076 0.33121789 -0.00279991 69 56 130
-0.06808919 -0.14794628 -0.00327887 69 55 129
0.14012855 -0.27599153 -0.00107729 68 57 131
0.02141070 0.05192510 0.00411881 67 61 132
0.02847224 -0.15612915 0.00209042 68 59 132
0.03159392 0.14542519 0.04362027 54 92 141
0.16417360 -0.05177675 -0.00047280 68 57 131
0.05993396 -0.02865242 0.00676329 66 63 133
0.17215376 -0.22007491 -0.00069443 68 57 131
0.09227482 -0.26778892 -0.00157791 69 56 130
0.09202103 0.26005301 -0.00127202 68 57 131
-0.01239513 -0.33993462 -0.00273750 69 56 130
-0.14330274 0.36814374 -0.00365534 69 55 129
0.09183440 -0.18800125 -0.00156638 69 56 130
-0.08418307 -0.29181364 -0.00344950 69 55 129
0.00399167 0.23698275 0.17722191 50 182 122
-0.14777789 0.07582722 -0.00398901 69 55 129
-0.08400813 0.29186600 -0.00315676 69 55 129
0.16398609 0.01983123 -0.00061244 68 57 131
0.16401574 -0.13195121 -0.00074024 68 57 131
0.01183412 -0.24399270 -0.00250356 69 56 130
-0.01961823 0.07532111 0.02627548 60 79 138
-0.17969035 0.04350578 -0.00433609 69 53 129
0.02620611 0.27230370 0.15356743 33 166 133
-0.02755846 0.01210864 -0.00276776 69 56 130
-0.00428710 -0.10011687 0.00181657 68 59 132
-0.09527421 0.05116062 -0.00330796 69 55 129
0.14810845 0.13211705 -0.00065370 68 57 131
0.06006207 -0.31599182 -0.00197093 69 56 130
-0.01149792 0.14007926 -0.00248434 69 56 130
-0.15654382 -0.01961463 -0.00414205 69 55 129
-0.19600506 -0.21238045 -0.00470710 69 53 129
0.17884538 0.23484813 0.00004408 68 58 131
-0.06862675 0.08507032 -0.00322130 69 55 129
-0.05294568 -0.10820842 -0.00302652 69 55 129
0.10819156 0.22002292 -0.00109341 68 57 131
-0.04363393 0.22950871 0.14513925 31 161 136
-0.14082958 -0.29954779 -0.00413752 69 55 129
0.03610417 0.13203390 -0.00196385 69 56 130
0.01215312 0.27583453 -0.00215326 69 56 130
-0.00394343 -0.05990207 0.00543196 67 62 133
0.03571060 -0.11623438 0.00127096 68 58 131
-0.12299602 -0.21992137 -0.00388430 69 55 129
0.02000717 -0.30812985 -0.00243878 69 56 130
-0.18841146 0.12375316 -0.00438678 69 53 129
0.08412019 -0.22801565 -0.00168479 69 56 130
-0.16379881 -0.23608798 -0.00433996 69 53 129
-0.19589773 -0.04440568 -0.00459270 69 53 129
-0.19644327 -0.09210507 -0.00458163 69 53 129
0.09184530 0.18022317 -0.00124806 68 57 131
-0.04386859 -0.18009920 -0.00304844 69 55 129
-0.19621803 -0.17190857 -0.00462162 69 53 129
-0.03538513 0.22768863 -0.00263923 69 56 130
0.04418167 0.24399836 -0.00180781 69 56 130
-0.14016096 -0.10006794 -0.00396899 69 55 129
-0.11654764 -0.17208791 -0.00381019 69 55 129
0.17198722 0.09214234 -0.00064529 68 57 131
-0.03649946 -0.02815494 -0.00285667 69 55 129
-0.07600562 -0.04382303 -0.00325602 69 55 129
0.00194259 -0.37690642 -0.00271175 69 56 130
0.17217271 0.16397516 -0.00048262 68 57 131
0.05191442 0.24441501 0.11726578 33 143 141
0.06099098 0.19042924 0.11594027 33 142 141
-0.07546797 0.24604838 0.11750023 33 143 141
0.05782595 0.18732426 0.07693220 44 115 142
0.11600250 -0.13204527 0.00535132 67 62 133
-0.03897458 0.19881926 0.11302130 34 140 141
0.01551651 0.06260612 0.03829907 56 89 140
0.12914538 -0.06340156 0.01237163 65 68 135
0.06815527 -0.09998852 0.00166927 68 59 132
0.08391289 0.05216578 -0.00145200 69 56 130
-0.08399425 -0.36396849 -0.00354121 69 55 129
0.15616885 0.05985842 -0.00077301 68 57 131
-0.19633661 -0.35646030 -0.00476391 69 53 129
0.14803769 0.21189876 -0.00078561 68 57 131
0.09195479 0.09986332 -0.00139350 68 57 131
0.11574198 0.14809428 -0.00106007 68 57 131
0.01981989 0.01216516 -0.00221500 69 56 130
-0.09968808 0.01189503 -0.00347002 69 55 129
0.06011781 -0.17204610 0.00476099 67 62 133
0.09203366 0.00401764 -0.00139669 68 57 131
-0.05728881 0.15831631 0.08192024 42 119 142
0.14762664 -0.19601896 -0.00096832 68 57 131
-0.00458375 0.19595148 -0.00238245 69 56 130
0.07101061 0.22006187 0.13200356 31 152 139
0.19804332 -0.13580258 0.00002879 68 58 131
-0.17138080 -0.28465754 -0.00449070 69 53 129
0.02798176 0.21204297 -0.00199670 69 56 130
0.09304584 -0.03400047 0.00912019 66 65 134
0.19756883 -0.05529802 0.00004673 68 58 131
0.16406916 -0.09174170 -0.00061005 68 57 131
-0.03587336 0.09201637 -0.00268827 69 56 130
0.01175498 -0.19638020 -0.00237942 69 56 130
-0.02054712 -0.25165853 -0.00279532 69 56 130
0.02823573 -0.04395365 0.00367193 67 61 132
-0.11614023 0.13221066 -0.00358643 69 55 129
0.05232874 -0.24399829 -0.00201637 69 56 130
0.16405174 -0.25198576 -0.00087645 68 57 131
0.05169489 0.17995192 -0.00172312 69 56 130
-0.12343676 -0.06800818 -0.00378699 69 55 129
-0.09998310 -0.14045019 -0.00362760 69 55 129
-0.07487527 0.21700600 0.13500021 31 154 138
-0.16414602 -0.16401362 -0.00428385 69 53 129
-0.02038549 0.26002279 -0.00249763 69 56 130
0.15607396 -0.01177343 -0.00067419 68 57 131
-0.04382690 0.15609428 -0.00280476 69 56 130
-0.15517963 0.10800988 -0.00407240 69 55 129
-0.09194059 -0.25219220 -0.00361723 69 55 129
-0.14765173 -0.33963192 -0.00422778 69 55 129
0.00399589 -0.27620018 -0.00257109 69 56 130
-0.08402539 0.12396269 -0.00320274 69 55 129
-0.07582339 -0.07592032 -0.00340275 69 55 129
0.16446614 -0.16399895 -0.00057477 68 57 131
-0.16379860 0.01160307 -0.00420155 69 55 129
-0.06844938 -0.39592505 -0.00333002 69 55 129
0.10008968 -0.09980779 0.00200143 68 59 132
0.00338432 0.30650046 -0.00219872 69 56 130
-0.11576256 -0.36401463 -0.00392467 69 55 129
-0.05168302 -0.21187872 -0.00319434 69 55 129
-0.02917188 0.26798555 0.12714455 31 149 139
0.19484209 0.02006662 -0.00035763 68 57 131
0.05161507 0.05226791 -0.00183093 69 56 130
0.03120410 0.19355175 0.11081643 35 138 141
0.01286875 0.26712555 0.18132503 55 184 120
0.16885853 -0.28860855 -0.00103857 68 57 131
-0.08697131 0.34493652 -0.00337586 69 55 129
-0.06062108 0.02487693 -0.00297648 69 55 129
0.02742529 0.24833180 0.13417622 31 154 138
-0.12418911 0.16102229 -0.00363557 69 55 129
0.04082358 0.14340498 0.07236981 45 113 142
-0.05264508 0.26772541 -0.00274824 69 56 130
-0.17125715 -0.11628429 -0.00438348 69 53 129
0.19512042 -0.24399546 -0.00056250 68 57 131
-0.05243272 -0.36421826 -0.00331728 69 55 129
-0.01939696 0.24417870 0.15830092 36 170 131
-0.12422349 -0.00406447 -0.00377777 69 55 129
-0.17108788 0.35928512 -0.00406512 69 55 129
-0.05186457 -0.29991022 -0.00313061 69 55 129
0.13215518 0.01183665 -0.00098473 68 57 131
-0.02864693 0.32087713 -0.00251922 69 56 130
-0.11604669 0.35490227 -0.00351667 69 55 129
0.03565462 0.09998301 -0.00198396 69 56 130
0.13745126 -0.30491129 -0.00120003 68 57 131
0.10832945 0.06788788 -0.00125118 68 57 131
0.10469440 -0.16096486 0.00791828 66 64 134
-0.03949824 0.16227235 0.05450312 50 100 142
0.04413921 -0.00366990 -0.00196755 69 56 130
0.00221072 -0.16576177 0.00913556 66 65 134
-0.13231824 -0.39576402 -0.00408859 69 55 129
0.01540890 0.03254207 0.02790529 60 80 139
0.01180982 -0.13222702 0.00098829 68 58 131
-0.00136116 0.07184076 -0.00255634 69 56 130
0.07607453 -0.29214123 -0.00177795 69 56 130
-0.02810030 -0.31596088 -0.00286436 69 55 129
0.06025590 0.11600814 -0.00169049 69 56 130
-0.19553795 -0.29993668 -0.00473238 69 53 129
0.11635175 0.11582490 -0.00110586 68 57 131
0.06446368 -0.34415206 -0.00198677 69 56 130
-0.16368566 -0.39625028 -0.00444433 69 53 129
0.05937328 -0.05989359 0.00158170 68 59 132
-0.19504514 0.24465849 -0.00435766 69 53 129
-0.02205328 0.04420123 0.01462916 64 70 136
-0.17257172 0.15581889 -0.00417278 69 55 129
-0.09248088 -0.02003589 -0.00339933 69 55 129
0.19518420 -0.20405868 -0.00053956 68 57 131
-0.12466969 0.06011828 -0.00373020 69 55 129
-0.02033583 0.17204022 -0.00254650 69 56 130
-0.15616958 0.20528509 -0.00398007 69 55 129
0.02736334 0.24574527 0.16179146 37 172 130
-0.02563498 -0.08460883 0.00997350 65 66 135
0.04739857 0.16841507 0.06084036 48 105 142
-0.05226500 0.18088715 0.09874225 38 130 142
-0.14030726 -0.04387565 -0.00398220 69 55 129
-0.11598862 -0.29177377 -0.00383863 69 55 129
0.03579262 -0.18204488 0.00921159 66 65 134
-0.05220233 0.30002031 -0.00283429 69 55 129
0.11626884 -0.19600989 -0.00125228 68 57 131
-0.17302400 0.06824881 -0.00422894 69 55 129
-0.17192149 -0.34870335 -0.00452489 69 53 129
0.11580977 -0.28399158 -0.00132071 68 57 131
-0.08396004 -0.22787009 -0.00343852 69 55 129
-0.01319692 -0.18247451 -0.00260810 69 56 130
0.19616726 0.08392250 0.00008407 68 58 131
-0.02766050 0.11617333 -0.00263065 69 56 130
0.13983977 -0.12401091 -0.00102414 68 57 131
-0.08413468 -0.32412088 -0.00353514 69 55 129
0.07612360 0.23584786 -0.00144163 69 56 130
-0.06784985 0.14778726 -0.00305914 69 55 129
0.16419812 0.18806370 -0.00059716 68 57 131
-0.14822252 -0.26815316 -0.00417105 69 55 129
-0.09950764 0.07611237 -0.00349017 69 55 129
-0.07618853 -0.12397000 -0.00329115 69 55 129
-0.05993650 -0.27592844 -0.00317758 69 55 129
-0.02651734 -0.11588647 0.00944006 66 65 134
0.02819207 0.07582632 -0.00210034 69 56 130
0.11597607 -0.25190464 -0.00132614 68 57 131
-0.02018038 -0.36394319 -0.00285787 69 55 129
-0.05717912 0.21497118 -0.00285265 69 55 129
-0.07573989 -0.17198376 -0.00340199 69 55 129
0.17233829 -0.18794616 -0.00047379 68 57 131
0.11591505 -0.04408338 -0.00120473 68 57 131
0.06809840 0.26790980 -0.00150895 69 56 130
0.04419351 0.15586649 -0.00184623 69 56 130
0.14021935 0.15601672 -0.00072503 68 57 131
0.02746511 0.29767218 -0.00194704 69 56 130
-0.00395595 -0.30004478 -0.00265750 69 56 130
0.03592401 0.26783052 -0.00189402 69 56 130
-0.18864562 0.02008223 -0.00440616 69 53 129
0.01553965 0.27943712 0.13207978 31 152 139
0.01235888 -0.33194271 -0.00250932 69 56 130
0.08428821 -0.32398605 -0.00171489 69 56 130
-0.09162632 0.31597444 -0.00322718 69 55 129
-0.00395049 0.02014754 -0.00246031 69 56 130
0.01968917 -0.22002071 -0.00235628 69 56 130
0.01256094 0.12409433 -0.00219064 69 56 130
0.05177869 -0.14792857 0.00141138 68 58 131
0.06766111 -0.19598445 -0.00182384 69 56 130
-0.05238223 0.24955842 0.13379094 31 153 138
0.19438438 0.14832197 -0.00019125 68 57 131
-0.17134438 -0.04401074 -0.00430332 69 53 129
-0.10322328 0.17794910 -0.00332126 69 55 129
-0.10020912 -0.06020033 -0.00355462 69 55 129
-0.03680349 -0.33988422 -0.00303645 69 55 129
0.14032033 -0.04393777 -0.00085594 68 57 131
0.11611182 0.24410035 -0.00099739 68 57 131
-0.18808134 -0.23639303 -0.00464107 69 53 129
0.13190128 0.06001175 -0.00091687 68 57 131
-0.01008088 0.25962141 0.17912470 52 182 121
0.08366431 0.02794738 -0.00153269 69 56 130
-0.13260515 -0.19628090 -0.00394644 69 55 129
-0.15654825 0.03659516 -0.00407451 69 55 129
-0.18788958 -0.06831793 -0.00453683 69 53 129
-0.13959463 -0.16400728 -0.00404281 69 55 129
-0.04348936 -0.15597828 -0.00304776 69 55 129
-0.17235494 -0.09170382 -0.00429668 69 53 129
-0.05913172 0.21135253 0.11691224 33 142 141
0.06818310 -0.00403518 -0.00167806 69 56 130
0.06826661 -0.26788020 -0.00184155 69 56 130
-0.19673079 0.06030249 -0.00450776 69 53 129
0.03681619 -0.02230307 0.01113271 65 66 135
0.01182338 0.14799809 -0.00221025 69 56 130
0.17185119 0.11602846 -0.00038457 68 57 131
0.14804734 -0.22799829 -0.00100002 68 57 131
0.05340212 0.17473702 0.09667388 38 129 142
0.17185587 0.21205747 -0.00032008 68 57 131
-0.17285697 -0.25984502 -0.00439607 69 53 129
0.17217977 0.13992050 -0.00030822 68 57 131
0.08422821 0.07586731 -0.00148210 69 56 130
0.05196724 0.22835147 0.14514111 31 161 136
-0.10787578 -0.19634253 -0.00371612 69 55 129
-0.16332786 -0.13981766 -0.00426139 69 53 129
0.13964142 -0.25181779 -0.00109597 68 57 131
-0.13154814 0.10774025 -0.00377626 69 55 129
-0.02445871 0.04943082 0.03913951 56 89 140
-0.17910250 -0.18810371 -0.00446673 69 53 129
-0.03804361 0.22017825 0.12424231 32 147 140
0.13979624 0.03613773 -0.00089906 68 57 131
-0.17217098 0.09176295 -0.00419736 69 55 129
-0.16342434 -0.30807677 -0.00439515 69 53 129
0.03619297 -0.33216831 -0.00227312 69 56 130
0.19476749 0.17218912 -0.00026393 68 57 131
0.01215192 -0.35585487 -0.00252012 69 56 130
-0.07625981 -0.09991874 -0.00331885 69 55 129
-0.19641869 0.14787182 -0.00446944 69 53 129
-0.04441242 -0.00377935 -0.00300151 69 55 129
0.06821163 0.16376695 -0.00156265 69 56 130
0.01228928 -0.07578091 0.00109679 68 58 131
0.07206133 0.23817486 0.10783327 35 136 142
-0.03841310 0.21088862 0.09333500 39 127 142
-0.01996822 -0.01212360 -0.00262851 69 56 130
0.09168880 0.20397252 -0.00130233 68 57 131
-0.12311097 -0.12386608 -0.00383059 69 55 129
0.14791735 -0.06794767 -0.00087035 68 57 131
-0.13918054 -0.23610362 -0.00407685 69 55 129
0.17216195 -0.02801659 -0.00058977 68 57 131
-0.17978257 -0.37217480 -0.00462149 69 53 129
0.04390299 -0.29988715 -0.00214253 69 56 130
0.06018590 -0.12385497 0.00153709 68 59 132
-0.19623211 0.36452091 -0.00426413 69 53 129
0.14804783 0.10812509 -0.00065317 68 57 131
0.03634431 0.02778662 -0.00200304 69 56 130
0.18014015 -0.11593422 -0.00064239 68 57 131
-0.01336544 -0.03424915 -0.00255243 69 56 130
-0.04369752 -0.26006892 -0.00304433 69 55 129
0.09215604 -0.12403115 0.00190156 68 59 132
-0.05959104 -0.02819066 -0.00303565 69 55 129
0.09996974 -0.21172620 -0.00142727 69 56 130
0.13212173 0.22809877 -0.00081098 68 57 131
-0.01164264 0.21985152 -0.00241021 69 56 130
0.02017036 -0.09983376 0.00111013 68 58 131
0.11600862 0.19599538 -0.00100392 68 57 131
0.02821557 -0.25976303 -0.00226913 69 56 130
0.17221491 0.04398353 -0.00036219 68 57 131
0.18023036 -0.07599123 -0.00055241 68 57 131
0.09192216 0.15592417 -0.00134890 68 57 131
-0.17908815 -0.02039468 -0.00436061 69 53 129
-0.04363024 0.24844468 0.15739703 35 169 131
0.19516268 0.21931916 -0.00035388 68 57 131
0.04848247 0.25053948 0.14186966 31 159 136
0.18812339 -0.15615915 -0.00052513 68 57 131
0.02008027 0.25188598 -0.00207635 69 56 130
-0.05206211 -0.13222413 -0.00314747 69 55 129
0.00467632 0.07090616 0.02051497 62 74 137
0.10008749 0.13211648 -0.00122619 68 57 131
-0.10051569 -0.30792502 -0.00372405 69 55 129
-0.06752253 0.10803028 -0.00309815 69 55 129
0.11589342 -0.08417988 0.00446755 67 62 133
0.05967768 -0.21998745 -0.00192420 69 56 130
0.07076899 0.24229021 0.13073079 31 151 139
0.14835839 -0.14776568 -0.00079908 68 57 131
0.00487511 -0.03802437 0.01022240 65 66 135
-0.00461542 -0.22813734 -0.00262838 69 56 130
-0.09949572 -0.27571023 -0.00368273 69 55 129
-0.09927633 -0.34783852 -0.00365509 69 55 129
-0.03073255 -0.04998853 -0.00283129 69 55 129
-0.12390920 0.08399591 -0.00369531 69 55 129
-0.03744050 0.25012177 0.11657667 33 142 141
-0.03651118 -0.22796957 -0.00293323 69 55 129
0.15580662 0.23599628 -0.00045082 68 57 131
-0.10838636 -0.23606788 -0.00377072 69 55 129
-0.17403717 0.25014731 -0.00411992 69 55 129
-0.17142305 -0.21189635 -0.00437799 69 53 129
0.18018699 0.00407848 -0.00036970 68 57 131
-0.08252726 0.26525033 -0.00308878 69 55 129
-0.02910609 0.25037935 0.14002904 31 158 137
-0.02760546 0.20385370 -0.00262069 69 56 130
-0.08469696 0.02703949 -0.00327412 69 55 129
0.08398265 -0.16413780 0.00479157 67 62 133
-0.14968036 0.22535276 -0.00379156 69 55 129
-0.03935586 0.16702978 0.08863353 41 123 142
-0.05204990 0.24372020 -0.00279127 69 56 130
-0.03962051 0.15022998 0.07449878 44 113 142
-0.13063912 0.18069701 -0.00373222 69 55 129
0.11213163 0.26435125 -0.00073487 68 57 131
0.06439716 0.19978185 0.09520954 39 128 142
0.07610844 -0.04403644 0.00370009 67 61 132
0.03188121 0.22991757 0.14563800 31 161 135
0.01560040 0.03267409 0.00536766 67 62 133
0.19465236 -0.03572012 -0.00022195 68 57 131
0.04940126 0.15810716 0.08243376 42 119 142
-0.10792894 0.03608775 -0.00353210 69 55 129
0.08408870 -0.02006046 -0.00148837 69 56 130
-0.13658410 0.34971067 -0.00388274 69 55 129
-0.02007725 0.07706778 -0.00259890 69 56 130
0.00547898 0.24335988 0.15899409 36 170 131
-0.07066378 0.22670174 0.11500340 34 141 141
-0.17098439 0.13183993 -0.00419954 69 55 129
0.07508912 -0.18451576 0.01164275 65 68 135
-0.00528164 0.06936936 0.03737815 56 88 140
-0.18713294 -0.14858302 -0.00456781 69 53 129
-0.13114969 -0.31583753 -0.00401186 69 55 129
0.03094546 0.13307439 0.06022811 49 104 142
-0.06787077 -0.34846452 -0.00348413 69 55 129
-0.14883776 -0.12366956 -0.00409028 69 55 129
-0.10802132 -0.08351333 -0.00365509 69 55 129
0.06831253 -0.07614679 0.00168337 68 59 132
0.12353472 -0.14776266 0.01159203 65 68 135
-0.16661686 0.37720618 -0.00396329 69 55 129
-0.13225728 -0.35573164 -0.00407343 69 55 129
0.05188351 0.20303813 0.12579226 31 148 140
0.06825212 0.18795867 -0.00155582 69 56 130
0.02851309 0.18806408 -0.00200471 69 56 130
0.02758272 -0.28408799 -0.00233967 69 56 130
-0.14809044 -0.22005428 -0.00416913 69 55 129
0.03620588 -0.22794433 -0.00219135 69 56 130
-0.15644719 0.05971056 -0.00408050 69 55 129
0.02785672 -0.01200792 -0.00209831 69 56 130
-0.09974463 -0.17996469 -0.00365974 69 55 129
-0.00418322 -0.25989455 -0.00261563 69 56 130
0.04416703 -0.10011496 0.00141432 68 59 132
0.10795388 -0.06016938 0.00536225 67 62 133
-0.00405603 0.16392913 -0.00234626 69 56 130
0.14782780 -0.10007760 -0.00094908 68 57 131
-0.14747027 -0.07626879 -0.00405411 69 55 129
0.03599069 0.17999108 0.09974761 38 130 142
-0.08377825 0.09996843 -0.00329779 69 55 129
-0.07570389 -0.30784208 -0.00347799 69 55 129
-0.12345634 -0.14799714 -0.00386542 69 55 129
0.02034619 -0.17169121 0.00657650 66 63 133
-0.05223310 -0.08382100 -0.00297813 69 55 129
-0.06770275 0.28402165 -0.00307511 69 55 129
0.06858364 0.21190082 0.11605250 33 142 141
-0.18808737 -0.27594134 -0.00461068 69 53 129
0.05240656 0.13975258 -0.00178262 69 56 130
-0.14782479 -0.00384159 -0.00402513 69 55 129
-0.07290962 0.24310341 0.14267167 31 160 136
0.11601454 -0.10800475 0.00389159 67 61 132
-0.05195689 0.21695085 0.13527384 31 154 138
0.06786186 0.04402717 -0.00164611 69 56 130
-0.01973274 0.09996217 -0.00256985 69 56 130
0.10000585 0.02014362 -0.00132516 68 57 131
-0.13246846 -0.02004876 -0.00388431 69 55 129
0.12441014 0.13189922 -0.00095769 68 57 131
0.09985168 -0.24397071 -0.00145659 69 56 130
0.10780363 0.17197905 -0.00116878 68 57 131
0.15587892 0.08420951 -0.00049444 68 57 131
0.05203613 0.22785178 -0.00171580 69 56 130
-0.09175503 -0.16386840 -0.00350063 69 55 129
0.15617396 -0.17991953 -0.00078404 68 57 131
0.10797776 -0.01182447 -0.00122856 68 57 131
-0.04408852 0.28401354 -0.00273624 69 56 130
-0.06779344 -0.22008851 -0.00318243 69 55 129
-0.00394438 0.28375971 -0.00233695 69 56 130
0.17215057 0.06800009 -0.00053726 68 57 131
-0.18810305 -0.10798457 -0.00450943 69 53 129
0.10034870 0.08401462 -0.00123976 68 57 131
0.09213541 -0.14821203 0.00293794 67 61 132
-0.12418758 -0.09192853 -0.00383074 69 55 129
0.07634706 -0.24416912 -0.00171788 69 56 130
0.06815676 0.06794503 -0.00165939 69 56 130
0.17217582 -0.26794991 -0.00069553 68 57 131
0.10018133 0.04408471 -0.00131185 68 57 131
0.03590503 -0.13967130 0.00127898 68 58 131
0.00378321 -0.14798434 0.00371730 67 61 132
0.00401721 -0.11612246 0.00093149 68 58 131
-0.12413673 -0.37985465 -0.00402788 69 55 129
0.12393016 -0.26792672 -0.00123125 68 57 131
0.15618163 -0.21202357 -0.00075919 68 57 131
0.10015821 0.23600230 -0.00115578 68 57 131
0.19688326 0.10589812 0.00008980 68 58 131
0.00402106 0.25990948 -0.00225682 69 56 130
-0.10011264 -0.22021277 -0.00367197 69 55 129
-0.05176967 -0.04426513 -0.00299578 69 55 129
0.13193634 -0.07593191 -0.00103838 68 57 131
0.10035928 -0.29989591 -0.00150719 69 56 130
-0.14817122 -0.18021244 -0.00414784 69 55 129
-0.16421764 -0.33224928 -0.00441180 69 53 129
0.10814049 -0.18012905 -0.00139118 68 57 131
0.01177910 0.08390082 -0.00228221 69 56 130
-0.02774331 -0.19598886 -0.00289578 69 55 129
0.06798942 -0.15596253 0.00181297 68 59 132
-0.04379257 0.10797535 -0.00285440 69 55 129
0.13201159 -0.21201339 -0.00110859 68 57 131
0.01865627 0.05971320 0.01990096 62 74 137
0.04379286 0.20384741 -0.00178096 69 56 130
-0.06803113 0.30815196 -0.00296838 69 55 129
0.07575356 -0.21183148 -0.00173390 69 56 130
-0.01213764 0.24425906 -0.00238145 69 56 130
0.15622313 0.17184158 -0.00067630 68 57 131
0.13991420 0.07602075 -0.00090767 68 57 131
0.00407710 -0.31601623 -0.00259405 69 56 130
0.15623423 -0.11597785 -0.00077453 68 57 131
0.05213520 0.26010978 -0.00169397 69 56 130
-0.17997989 0.00335524 -0.00433940 69 53 129
-0.03636224 0.25203806 -0.00263653 69 56 130
0.08427278 -0.08416908 0.00183271 68 59 132
0.08413713 0.11580194 -0.00143919 69 56 130
0.14825590 0.00415920 -0.00078246 68 57 131
-0.07586950 -0.26811579 -0.00341154 69 55 129
0.13222052 0.20386420 -0.00080565 68 57 131
0.07575881 0.09199931 -0.00154225 69 56 130
0.17981151 -0.13999775 -0.00066525 68 57 131
0.02028461 -0.02927121 0.00995514 65 66 135
0.19347297 0.03773021 0.00007100 68 58 131
-0.10811163 0.14800647 -0.00351914 69 55 129
0.00400175 0.17981553 -0.00225072 69 56 130
0.08402807 -0.10785658 0.00180926 68 59 132
-0.08409558 -0.38761690 -0.00350173 69 55 129
-0.05987567 -0.16412352 -0.00312537 69 55 129
-0.11584798 0.02025300 -0.00363811 69 55 129
0.15603642 0.14794694 -0.00071147 68 57 131
0.18023901 -0.17203674 -0.00056882 68 57 131
0.01219854 0.20403007 -0.00212106 69 56 130
0.00350960 -0.21203743 -0.00252071 69 56 130
0.15318087 -0.29679018 -0.00100563 68 57 131
0.01211104 -0.00396169 -0.00227192 69 56 130
0.02047315 0.22804990 -0.00205977 69 56 130
-0.00393810 0.11587931 -0.00238483 69 56 130
-0.13275895 -0.28381884 -0.00406170 69 55 129
-0.01188722 0.00393204 -0.00255612 69 56 130
0.06036655 -0.28404447 -0.00195491 69 56 130
-0.08373018 0.00382403 -0.00327035 69 55 129
-0.06827890 -0.18799900 -0.00332987 69 55 129
0.11613785 0.00383904 -0.00113312 68 57 131
-0.01910304 -0.06788553 0.00971215 66 65 134
0.12396681 0.16415308 -0.00095629 68 57 131
-0.09960467 -0.37219232 -0.00370559 69 55 129
-0.10040832 0.11571115 -0.00349760 69 55 129
-0.13932325 0.01159435 -0.00392865 69 55 129
-0.19620831 0.03598140 -0.00454618 69 53 129
-0.10733221 -0.11606465 -0.00367905 69 55 129
-0.19610347 -0.33198121 -0.00473206 69 53 129
0.08388760 0.22009002 -0.00139647 68 57 131
-0.15596145 -0.25179991 -0.00426802 69 53 129
-0.04373708 0.02005937 -0.00288608 69 55 129
0.14785476 -0.02808110 -0.00092922 68 57 131
-0.06014670 -0.05971841 -0.00308277 69 55 129
0.05259726 -0.08393594 0.00146497 68 59 132
0.01974991 -0.05992223 0.00156601 68 59 132
0.18811125 -0.22794716 -0.00055406 68 57 131
0.07594126 0.01199729 -0.00159461 69 56 130
0.01988921 0.10819221 -0.00216771 69 56 130
0.04386210 0.06803806 -0.00187458 69 56 130
-0.18022451 0.10828939 -0.00430197 69 53 129
-0.10797101 -0.01190440 -0.00358936 69 55 129
-0.01594549 0.26263696 0.13726518 30 156 137
0.04371751 -0.05178051 0.00146966 68 59 132
-0.17156498 0.02767058 -0.00428813 69 53 129
0.04406245 -0.16395381 0.00286854 67 61 132
-0.04024739 0.14796816 0.04452318 54 93 141
0.01169958 -0.29185334 -0.00246609 69 56 130
-0.04373423 -0.32387561 -0.00309170 69 55 129
-0.01348805 -0.38503423 -0.00273750 69 56 130
-0.01201351 -0.12400472 0.00417153 67 61 132
-0.14067711 0.05228358 -0.00392610 69 55 129
-0.03537123 0.13179368 -0.00269232 69 56 130
0.03982741 0.15280277 0.05707982 49 102 142
0.13218769 -0.18800172 -0.00110165 68 57 131
-0.14108948 0.12404473 -0.00385893 69 55 129
-0.02835934 0.14826339 -0.00265701 69 56 130
-0.06784804 -0.37205520 -0.00337193 69 55 129
-0.10826170 -0.15620592 -0.00372175 69 55 129
0.13231227 -0.14007327 -0.00105787 68 57 131
-0.13924429 0.09180282 -0.00387178 69 55 129
-0.02866263 -0.17221925 -0.00286244 69 55 129
-0.14411861 0.19121474 -0.00388992 69 55 129
-0.01212536 0.31359270 -0.00232669 69 56 130
-0.07553300 0.32401803 -0.00311556 69 55 129
-0.15671146 -0.35626107 -0.00431073 69 53 129
0.17981669 -0.04391066 -0.00056277 68 57 131
0.01185087 0.24838603 0.14081572 31 158 137
-0.05170936 0.08539871 -0.00299806 69 55 129
0.19697447 -0.11714575 0.00002086 68 58 131
-0.18759435 0.26021960 -0.00425504 69 53 129
0.05217168 -0.18570991 0.01056433 65 66 135
0.19701703 -0.07666581 0.00003913 68 58 131
-0.15491217 -0.05214877 -0.00415850 69 55 129
-0.15674502 -0.10789102 -0.00419842 69 55 129
-0.01890038 0.05963522 0.02034388 62 74 137
-0.05243601 -0.38776723 -0.00319001 69 55 129
0.17993914 0.02791742 -0.00029834 68 57 131
-0.06034489 0.22993562 0.14521481 31 161 136
-0.07576710 -0.02006569 -0.00331847 69 55 129
-0.13993852 0.15543954 -0.00383264 69 55 129
-0.06574261 0.23075610 -0.00309135 69 55 129
0.09098051 -0.17782633 0.01163791 65 68 135
0.01293132 0.06646700 0.00413859 67 61 132
-0.02046624 -0.09994530 0.00596966 66 63 133
-0.01031965 -0.15479471 0.00990223 65 66 135
0.18001555 0.17988756 -0.00029204 68 57 131
-0.05884694 0.24558273 0.11761723 33 143 141
-0.04395943 -0.28393883 -0.00301200 69 55 129
-0.18004581 -0.13202631 -0.00445722 69 53 129
0.02779511 -0.20397700 -0.00226050 69 56 130
-0.03916813 0.17191896 0.06788521 46 110 142
-0.15644872 -0.29160732 -0.00428469 69 53 129
-0.10074844 -0.32439160 -0.00376206 69 55 129
0.15625903 0.03586942 -0.00078055 68 57 131
-0.16359358 -0.37978533 -0.00444149 69 53 129
-0.03531642 -0.37182638 -0.00310929 69 55 129
0.14773642 0.18811901 -0.00063851 68 57 131
-0.19586605 -0.37957284 -0.00482062 69 53 129
-0.14088231 0.21146254 -0.00380690 69 55 129
-0.01990111 -0.26808676 -0.00281292 69 56 130
0.05208862 0.10004906 -0.00177199 69 56 130
-0.19596213 -0.19598231 -0.00465812 69 53 129
-0.00421801 -0.35584572 -0.00270101 69 56 130
0.03638967 0.04415454 -0.00199803 69 56 130
0.08384063 0.27422512 -0.00127508 68 57 131
-0.12366410 0.04379527 -0.00372282 69 55 129
-0.15705477 -0.03594727 -0.00413710 69 55 129
0.10785300 -0.22810115 -0.00141292 69 56 130
-0.07505289 0.20406562 0.12502998 32 147 140
-0.12359264 -0.24379966 -0.00391956 69 55 129
-0.00387020 -0.08380278 0.00249181 68 59 132
-0.06785516 -0.29206434 -0.00334311 69 55 129
-0.14745195 -0.31629452 -0.00423404 69 55 129
0.19646075 0.00344862 0.00005949 68 58 131
0.10824150 0.09995256 -0.00120970 68 57 131
0.09201732 -0.05201849 0.00398645 67 61 132
0.04403391 -0.03581047 0.00457832 67 62 133
0.16418262 -0.06813513 -0.00055170 68 57 131
0.05208860 -0.26025012 -0.00203464 69 56 130
-0.18044308 -0.30816460 -0.00456977 69 53 129
0.10799709 -0.02805661 -0.00122251 68 57 131
-0.05250790 -0.19569132 -0.00311281 69 55 129
0.02798716 0.15599760 -0.00203043 69 56 130
-0.09188507 0.13997155 -0.00327656 69 55 129
0.13696401 -0.11538656 0.01238553 65 68 135
-0.05175382 0.31621292 -0.00284810 69 55 129
-0.19645719 -0.02821760 -0.00454773 69 53 129
0.07614695 0.25203407 -0.00143664 69 56 130
-0.03809214 0.22022574 0.10805662 35 136 142
0.07640409 -0.06010521 0.00178168 68 59 132
0.04448910 0.25014317 0.15754458 35 169 131
-0.13899989 -0.06000134 -0.00399240 69 55 129
0.18006314 -0.01209341 -0.00029595 68 57 131
-0.12359357 0.34009072 -0.00354575 69 55 129
0.11622939 0.02005650 -0.00112510 68 57 131
0.03597049 0.17201345 -0.00192102 69 56 130
-0.15538032 0.09179351 -0.00406029 69 55 129
0.09203920 -0.28391114 -0.00160362 69 56 130
0.11601569 0.05232412 -0.00109143 68 57 131
-0.09196383 -0.03614045 -0.00346501 69 55 129
-0.08435132 -0.34022385 -0.00363308 69 55 129
0.04415634 0.11592666 -0.00186976 69 56 130
0.01150609 0.25248954 0.17080262 44 177 126
0.18017043 -0.09206812 -0.00038391 68 57 131
0.03603819 -0.24401866 -0.00219960 69 56 130
-0.08415914 -0.14804064 -0.00341435 69 55 129
0.06025072 0.24402134 -0.00160489 69 56 130
0.14819033 -0.16383122 -0.00081878 68 57 131
0.15611365 -0.26788828 -0.00078932 68 57 131
0.14002545 -0.01223797 -0.00090787 68 57 131
-0.03779099 0.23643477 0.13192128 31 152 139
0.14781624 -0.08405268 -0.00093625 68 57 131
0.16421546 -0.23597194 -0.00075260 68 57 131
-0.05170057 0.14006899 -0.00298272 69 55 129
-0.02003458 0.18804750 -0.00254759 69 56 130
-0.06842394 -0.20400700 -0.00324468 69 55 129
0.04403654 -0.31589416 -0.00212844 69 56 130
0.08419352 -0.30798203 -0.00169024 69 56 130
0.05217122 0.03627421 -0.00184982 69 56 130
-0.01192095 -0.31602395 -0.00278270 69 56 130
-0.13218254 -0.17976750 -0.00397846 69 55 129
-0.02007047 0.27601317 -0.00244813 69 56 130
0.13205749 0.10798471 -0.00093999 68 57 131
0.01232965 0.29182383 -0.00212939 69 56 130
-0.16470011 -0.17998889 -0.00430634 69 53 129
-0.03610110 0.26801947 -0.00261559 69 56 130
-0.01143048 -0.28384054 -0.00273674 69 56 130
-0.09206591 -0.08395559 -0.00342375 69 55 129
-0.13968432 -0.25204682 -0.00409609 69 55 129
-0.03591852 -0.30005869 -0.00306861 69 55 129
-0.11623214 0.18752640 -0.00360204 69 55 129
0.17228161 -0.20413715 -0.00055663 68 57 131
0.03180897 0.20634370 0.12077707 33 145 140
-0.10786587 -0.25230697 -0.00377028 69 55 129
0.18002988 -0.05983363 -0.00067033 68 57 131
-0.08429503 -0.05981527 -0.00341884 69 55 129
0.04377295 0.08395664 -0.00189088 69 56 130
-0.19586781 0.10016632 -0.00450255 69 53 129
0.17996822 -0.25209874 -0.00073526 68 57 131
-0.00415273 -0.19606750 -0.00260903 69 56 130
-0.03674363 -0.24388014 -0.00299364 69 55 129
0.00426507 0.22000924 -0.00224979 69 56 130
-0.09990653 0.33208612 -0.00321637 69 55 129
-0.15609433 -0.09200552 -0.00411616 69 55 129
-0.06788605 0.13189670 -0.00297217 69 55 129
0.01170317 -0.25996619 -0.00247045 69 56 130
0.11622705 0.08392338 -0.00111628 68 57 131
0.06008703 -0.04401718 0.00276442 68 59 132
-0.03577834 -0.35572481 -0.00309717 69 55 129
-0.18047401 -0.38802555 -0.00461639 69 53 129
-0.19586600 -0.31577998 -0.00471868 69 53 129
0.16428143 -0.14779349 -0.00058587 68 57 131
0.06017602 -0.30015770 -0.00197496 69 56 130
-0.13181856 -0.33967683 -0.00408406 69 55 129
-0.05988596 -0.26010534 -0.00317039 69 55 129
-0.15567696 0.15389261 -0.00395749 69 55 129
-0.05968038 -0.31580913 -0.00316626 69 55 129
0.07598001 -0.12389753 0.00172149 68 59 132
-0.11656603 -0.34779841 -0.00392446 69 55 129
0.11624531 -0.21205431 -0.00126133 68 57 131
-0.13263369 0.13997017 -0.00378683 69 55 129
0.07571980 -0.02254653 0.01163137 65 68 135
-0.05212671 -0.34797394 -0.00323183 69 55 129
0.03610743 0.01204084 -0.00202705 69 56 130
-0.07619637 -0.25232384 -0.00348620 69 55 129
-0.08379882 -0.21186534 -0.00338422 69 55 129
-0.16431263 -0.00412385 -0.00420183 69 55 129
-0.06029541 0.19497404 0.10947579 35 137 142
0.09986356 0.11601172 -0.00124606 68 57 131
-0.02046366 -0.23593543 -0.00276765 69 56 130
-0.09989880 -0.29208276 -0.00366906 69 55 129
0.02000812 -0.11571520 0.00109650 68 58 131
0.05281933 0.17202573 0.07599731 44 114 142
-0.17984855 -0.16412346 -0.00444706 69 53 129
-0.11702465 -0.27610442 -0.00387472 69 55 129
0.14830439 0.02002938 -0.00071202 68 57 131
0.00457100 0.02630493 0.03736626 56 88 140
-0.12391012 -0.05234506 -0.00378340 69 55 129
0.00415127 0.02560148 0.01951612 62 73 137
-0.09184179 -0.12390978 -0.00345409 69 55 129
-0.12448207 -0.10827220 -0.00386203 69 55 129
0.03621059 0.28375092 -0.00188928 69 56 130
-0.01955009 -0.30018267 -0.00284134 69 55 129
0.09984989 -0.08388190 0.00197455 68 59 132
0.06891651 0.22841091 0.14497302 31 161 136
0.16395952 0.00428849 -0.00046390 68 57 131
0.11589410 -0.29986447 -0.00131022 68 57 131
-0.00457002 -0.24367213 -0.00263524 69 56 130
-0.03615351 -0.21201703 -0.00287874 69 55 129
-0.04371572 0.20409904 -0.00277354 69 56 130
0.02405316 0.27009651 0.16877529 42 176 127
-0.11564398 -0.31585917 -0.00388948 69 55 129
0.05165788 -0.33193505 -0.00208454 69 56 130
0.11616399 -0.15608965 -0.00122994 68 57 131
0.03592042 0.22820808 -0.00188586 69 56 130
0.18806067 -0.18791559 -0.00049689 68 57 131
0.10760823 -0.26817605 -0.00143792 69 56 130
0.13162103 -0.13178110 0.01181807 65 68 135
-0.08391906 0.08408753 -0.00324332 69 55 129
0.06979389 0.25712013 0.13433366 31 154 138
-0.03867828 0.18805590 0.09191918 39 126 142
-0.06526916 0.17430624 0.09412853 39 127 142
-0.03558152 0.17218018 -0.00266858 69 56 130
0.03105241 0.15270138 0.07930300 43 117 142
0.05232708 -0.01879096 -0.00188622 69 56 130
0.03676420 0.24483454 0.11739447 33 143 141
-0.00968283 0.24748383 0.17008297 44 177 126
-0.11552255 0.11609763 -0.00359080 69 55 129
-0.11549779 -0.39573514 -0.00392441 69 55 129
0.18001081 0.19707881 0.00003757 68 58 131
-0.14854571 -0.38723722 -0.00428125 69 53 129
-0.06825785 0.26011142 -0.00304180 69 55 129
-0.05152959 -0.22789793 -0.00320400 69 55 129
0.02090493 0.04352700 0.03632787 57 86 140
0.12389395 -0.06014365 -0.00114199 68 57 131
-0.15592788 0.12379326 -0.00402122 69 55 129
-0.10729267 0.05986330 -0.00353919 69 55 129
0.07218698 0.24962656 0.11721639 33 143 141
-0.10828593 0.16411771 -0.00350938 69 55 129
-0.03554698 0.30787727 -0.00260379 69 56 130
0.06811651 -0.01984444 -0.00169405 69 56 130
0.05734174 0.21624847 0.13582474 30 155 138
0.04865789 0.19216830 0.10814291 35 136 142
-0.09761131 0.30258730 -0.00311543 69 55 129
0.02104349 0.04350154 0.01999309 62 74 137
-0.01937363 0.02417067 -0.00268108 69 56 130
-0.15653566 0.35897201 -0.00389583 69 55 129
-0.06760509 0.01215489 -0.00309082 69 55 129
0.18271707 0.10187872 0.00002088 68 58 131
0.13656360 -0.08571365 0.01230827 65 68 135
-0.03966868 0.14822443 0.05989029 49 104 142
0.10649642 -0.03747428 0.01197829 65 68 135
-0.01593453 0.03300452 0.02329430 61 77 138
-0.03770734 0.23603797 0.11625963 33 142 141
0.06803819 0.20649715 0.12904747 31 150 139
0.12177708 -0.31320024 -0.00137410 68 57 131
0.13175684 -0.29205590 -0.00117150 68 57 131
0.00418595 0.27331781 0.19047208 64 189 114
0.06161791 0.24242027 0.14137544 31 159 136
0.18763255 0.06861734 0.00004122 68 58 131
-0.05163797 0.22780800 -0.00277653 69 56 130
-0.06201806 0.25118065 0.14705914 31 162 135
0.01694735 -0.36896494 -0.00254669 69 56 130
0.13188918 -0.10802229 -0.00103441 68 57 131
0.12523454 -0.12396759 -0.00112123 68 57 131
0.06738273 0.28165871 -0.00155175 69 56 130
-0.17910890 0.37144715 -0.00411839 69 55 129
-0.04604143 0.32864493 -0.00267050 69 56 130
-0.02015132 0.07597777 0.01268076 65 68 135
0.05132824 -0.34767210 -0.00209057 69 56 130
0.09388035 -0.17460302 -0.00164843 69 56 130
0.19518895 -0.26014936 -0.00042357 68 57 131
-0.10017988 0.34755844 -0.00325181 69 55 129
-0.01607496 0.27195761 0.18514481 59 187 117
0.10759343 -0.14807925 0.00564634 67 62 133
0.02214774 0.24703421 0.14923203 32 163 134
-0.01192122 0.30025095 -0.00236369 69 56 130
-0.03429866 0.07879397 -0.00260394 69 56 130
-0.07443605 0.23010363 0.14510457 31 161 136
0.03615982 0.25201035 0.14660756 31 161 135
0.02345396 0.25798124 0.15852825 36 170 131
0.10046086 -0.04333858 -0.00134660 68 57 131
-0.04877742 0.14208065 0.06955955 46 111 142
0.07052363 0.22789933 0.11594455 33 142 141
0.12497772 -0.09181795 -0.00117057 68 57 131
0.15595080 -0.28397071 -0.00087505 68 57 131
0.12356849 0.25807637 -0.00085039 68 57 131
0.11651304 -0.05170032 0.01030087 65 66 135
-0.00907257 0.23656395 0.17708090 50 182 122
0.18325931 0.08283767 0.00001565 68 58 131
0.05211971 0.27596277 -0.00169216 69 56 130
0.06221598 0.18799405 0.10002574 38 130 142
-0.08760566 0.07120907 -0.00318471 69 55 129
-0.09358007 0.16887553 -0.00320711 69 55 129
-0.06622170 0.18602674 0.10248458 37 132 142
-0.00428221 0.08429349 -0.00244251 69 56 130
0.08597519 -0.03354942 -0.00144594 69 56 130
-0.13199876 0.36235824 -0.00359707 69 55 129
-0.04674655 0.21149844 0.11962277 33 144 141
-0.04436242 0.18972751 0.10601972 36 135 142
-0.02209064 0.04400400 0.02793410 60 80 139
0.18441424 -0.28055692 -0.00049159 68 57 131
-0.06807294 0.25006387 0.13327128 31 153 138
0.06898557 0.19623692 0.10815827 35 136 142
0.06782056 -0.33204937 -0.00189090 69 56 130
-0.17102520 0.05258456 -0.00428003 69 53 129
-0.13234349 -0.21178481 -0.00399974 69 55 129
0.04472583 0.15604515 0.06799156 46 110 142
-0.18724714 -0.25206527 -0.00459592 69 53 129
-0.09929059 0.09207329 -0.00341512 69 55 129
-0.18733519 0.15614158 -0.00434152 69 53 129
-0.06043677 0.19898997 0.12105586 33 145 140
-0.01905045 0.06000908 0.03615657 57 86 140
-0.06807840 0.20497254 0.11163022 34 139 141
0.19125818 -0.06592198 0.00001302 68 58 131
0.18269257 0.12156601 0.00002639 68 58 131
-0.18042499 -0.22005887 -0.00451206 69 53 129
-0.03815158 0.22144973 0.13791795 30 156 137
-0.14785887 0.02816340 -0.00401042 69 55 129
-0.15677041 -0.21162653 -0.00420818 69 55 129
-0.05873525 0.23861159 0.12750342 31 149 139
-0.09297130 0.03585219 -0.00331718 69 55 129
-0.05616641 0.20798141 0.12813506 31 149 139
0.04302391 0.16622056 0.08949807 40 124 142
-0.17211522 -0.14803126 -0.00437052 69 53 129
-0.07665092 0.33877742 -0.00317125 69 55 129
0.05487838 0.23777983 0.12678432 31 148 140
0.00362925 0.13205510 -0.00231454 69 56 130
-0.18403417 0.23066269 -0.00408429 69 55 129
-0.02022810 0.22816004 -0.00250595 69 56 130
0.13159139 -0.03578558 -0.00103307 68 57 131
-0.05246871 0.09980770 -0.00298377 69 55 129
0.06079485 0.24982923 0.13153155 31 152 139
-0.18023749 -0.05193515 -0.00440063 69 53 129
0.02795556 0.05966310 -0.00210923 69 56 130
0.00037861 0.26395887 0.18419693 58 186 118
-0.05184732 0.17147380 0.09148794 40 125 142
0.18160982 0.21884871 0.00004529 68 58 131
-0.10051769 0.13179868 -0.00343053 69 55 129
-0.18753308 0.06782507 -0.00439995 69 53 129
-0.18814331 0.05183117 -0.00442484 69 53 129
-0.10849921 0.00396585 -0.00363585 69 55 129
-0.01223770 0.06608631 0.02836080 59 81 139
-0.03912526 0.17599496 0.09635583 38 129 142
0.06142380 0.19566400 0.08449724 42 120 142
-0.17260459 -0.24396819 -0.00445077 69 53 129
-0.17129797 0.11602667 -0.00416865 69 55 129
0.05965458 0.19602512 -0.00166202 69 56 130
-0.10690314 0.31690523 -0.00342970 69 55 129
-0.18749951 -0.34003150 -0.00468869 69 53 129
0.07681869 -0.18857850 -0.00172758 69 56 130
-0.10853796 0.08366048 -0.00357508 69 55 129
-0.18745515 -0.08451059 -0.00450686 69 53 129
0.02750611 0.12401880 -0.00205430 69 56 130
-0.17245033 -0.07607377 -0.00432568 69 53 129
-0.13274151 -0.37186038 -0.00408767 69 55 129
0.07628209 0.20410936 -0.00141845 69 56 130
0.02001694 -0.14802754 0.00152842 68 59 132
-0.06000439 -0.17970589 -0.00311411 69 55 129
0.10788791 -0.12396537 0.00287893 67 61 132
-0.08366676 -0.01141516 -0.00325201 69 55 129
0.08441325 -0.20394281 -0.00160239 69 56 130
0.04095507 0.20058608 0.11627218 33 142 141
-0.10804485 -0.13196468 -0.00369801 69 55 129
-0.18762533 -0.17984499 -0.00456834 69 53 129
0.00383328 0.00430110 -0.00241283 69 56 130
0.02021085 0.09200015 -0.00213904 69 56 130
-0.08410277 -0.18014275 -0.00350269 69 55 129
-0.18828943 -0.12377011 -0.00451079 69 53 129
-0.06779451 -0.11587071 -0.00323463 69 55 129
-0.18781021 0.14000148 -0.00437362 69 53 129
-0.15572663 -0.15594637 -0.00421563 69 55 129
0.14819793 -0.13212810 -0.00083334 68 57 131
0.06058976 -0.25228223 -0.00193781 69 56 130
-0.00339874 0.23850209 0.16614731 40 174 128
-0.05227217 0.01213820 -0.00290404 69 55 129
-0.06749034 -0.08402753 -0.00310536 69 55 129
-0.15781799 0.23365287 -0.00402092 69 55 129
-0.05953132 -0.01219045 -0.00312006 69 55 129
0.02793624 0.03619386 -0.00208596 69 56 130
0.13964282 -0.23600312 -0.00109353 68 57 131
0.12386756 0.21994030 -0.00091941 68 57 131
-0.02825770 -0.33203387 -0.00289756 69 55 129
-0.07618931 -0.15645519 -0.00342086 69 55 129
0.02800575 -0.32396576 -0.00233121 69 56 130
0.05219455 0.01209553 -0.00183634 69 56 130
0.03594640 -0.09195634 0.00131602 68 58 131
-0.02027750 0.13252705 -0.00257489 69 56 130
-0.17982586 -0.20392722 -0.00448042 69 53 129
0.05206378 -0.13210498 0.00142448 68 59 132
-0.03606438 -0.01179797 -0.00287573 69 55 129
-0.16359137 0.10006404 -0.00417995 69 55 129
-0.17194717 -0.06002196 -0.00434167 69 53 129
-0.16581047 0.24201103 -0.00409661 69 55 129
0.13186845 -0.00404549 -0.00101467 68 57 131
0.17978106 -0.23596025 -0.00077235 68 57 131
-0.11608779 -0.18820614 -0.00380697 69 55 129
0.09167305 0.14003567 -0.00135369 68 57 131
0.02776042 -0.34006608 -0.00232592 69 56 130
-0.16422157 0.07573055 -0.00416502 69 55 129
0.06766597 0.22797874 -0.00153161 69 56 130
-0.17121677 -0.36442366 -0.00452863 69 53 129
0.02034697 -0.26821977 -0.00235644 69 56 130
-0.10018042 -0.04422564 -0.00358136 69 55 129
-0.18738489 -0.01239778 -0.00444834 69 53 129
-0.04436591 -0.39598259 -0.00306498 69 55 129
-0.17162938 -0.29999962 -0.00445669 69 53 129
0.08386767 -0.25992578 -0.00168102 69 56 130
0.02783086 0.14003512 -0.00204465 69 56 130
-0.17200582 -0.22790360 -0.00441039 69 53 129
0.02803320 -0.29988354 -0.00233392 69 56 130
0.09213167 0.06021921 -0.00133180 68 57 131
0.05193955 0.21197180 -0.00170481 69 56 130
0.00382615 0.02543907 0.00416566 67 61 132
0.14818925 -0.24412292 -0.00094366 68 57 131
0.01197692 -0.15605313 0.00385931 67 61 132
-0.10763879 -0.02774736 -0.00355677 69 55 129
0.07598973 0.12390656 -0.00152372 69 56 130
0.16407850 0.22801863 -0.00044687 68 57 131
0.17199215 -0.10012499 -0.00081500 68 57 131
0.05187587 -0.02135486 0.01047645 65 66 135
0.09989159 0.21208324 -0.00122064 68 57 131
0.07575458 -0.31577393 -0.00180969 69 56 130
0.00408464 -0.33990771 -0.00258451 69 56 130
-0.09963220 -0.00401104 -0.00356576 69 55 129
0.16416627 -0.19600253 -0.00081263 68 57 131
0.11632023 -0.17207767 -0.00125807 68 57 131
0.18563730 0.04634509 0.00001056 68 58 131
-0.02813497 -0.02018734 -0.00273634 69 56 130
0.09189568 0.24396203 -0.00127373 68 57 131
-0.00380617 -0.13194661 0.00309027 67 61 132
0.10025181 -0.19578888 -0.00140115 68 57 131
0.07581133 0.10791619 -0.00154938 69 56 130
-0.02289048 -0.04162768 -0.00269748 69 56 130
0.13178898 -0.05183403 -0.00103427 68 57 131
-0.06817150 -0.13216166 -0.00335747 69 55 129
0.15596567 -0.03617998 -0.00088920 68 57 131
0.04420353 -0.06778202 0.00141368 68 59 132
0.10018874 0.14799006 -0.00123143 68 57 131
-0.01190895 -0.07601463 0.00494308 67 62 133
0.01992298 -0.23588453 -0.00237903 69 56 130
-0.19613218 -0.28409204 -0.00468243 69 53 129
0.00427094 -0.09172322 0.00102853 68 58 131
0.10016164 0.25200632 -0.00117148 68 57 131
0.10813386 0.12392184 -0.00116420 68 57 131
-0.04415079 -0.30836251 -0.00315721 69 55 129
0.03594508 -0.21200743 -0.00219962 69 56 130
0.10808377 0.01196248 -0.00125804 68 57 131
0.16385722 0.10018540 -0.00037752 68 57 131
-0.05174543 -0.14806475 -0.00306591 69 55 129
0.15600146 0.19603412 -0.00041487 68 57 131
-0.11636525 0.17220451 -0.00358352 69 55 129
-0.07589091 0.11593816 -0.00316234 69 55 129
0.01234555 0.06700905 0.02803472 60 80 139
0.14008127 0.05203739 -0.00083266 68 57 131
0.00416932 -0.06789508 0.00261570 68 59 132
0.12410613 -0.24388623 -0.00123096 68 57 131
0.02018116 -0.08403414 0.00112701 68 58 131
-0.03935367 0.16398504 0.07609334 44 114 142
0.03624474 0.25220326 -0.00187928 69 56 130
-0.03541431 -0.27593076 -0.00301622 69 55 129
-0.16417788 0.21340929 -0.00407187 69 55 129
-0.16465521 -0.26777324 -0.00434552 69 53 129
-0.19588698 -0.15589516 -0.00465247 69 53 129
-0.03583100 0.00425736 -0.00284570 69 55 129
0.09988991 0.19604853 -0.00123544 68 57 131
-0.00415425 -0.01186414 -0.00247851 69 56 130
-0.08408547 -0.27602270 -0.00353169 69 55 129
0.00420363 -0.05192976 0.00521391 67 62 133
